# This PCD file was generated using the MATLAB® pcwrite function
# from Computer Vision Toolbox®.
# .PCD v.7 - Point Cloud Data file format
VERSION .7
FIELDS x y z rgb
SIZE 4 4 4 4
TYPE F F F F
COUNT 1 1 1 1
WIDTH 1109
HEIGHT 1
VIEWPOINT 0 0 0 1 0 0 0
POINTS 1109
DATA ascii
0.186479 0.014667 1.013000 1.076670159e-38
0.188112 0.014667 1.013000 1.049011470e-38
0.190495 0.014725 1.017000 1.030572344e-38
0.192325 0.014739 1.018000 9.753275532e-39
0.193966 0.014739 1.018000 9.015710494e-39
0.196377 0.014797 1.022000 8.096993997e-39
0.198025 0.014797 1.022000 7.820407107e-39
0.200260 0.014840 1.025000 6.349239902e-39
0.202307 0.014869 1.027000 5.058501084e-39
0.203963 0.014869 1.027000 3.129598333e-39
0.206220 0.014913 1.030000 2.576424554e-39
0.208285 0.014942 1.032000 2.301642537e-39
0.209949 0.014942 1.032000 2.301642537e-39
0.212434 0.015000 1.036000 2.117614213e-39
0.214105 0.015000 1.036000 2.302005473e-39
0.216400 0.015043 1.039000 2.670787992e-39
0.033432 0.017426 1.083000 4.595748890e-39
0.035178 0.017426 1.083000 4.226966371e-39
0.036857 0.017394 1.081000 2.024350794e-39
0.038600 0.017394 1.081000 1.839959534e-39
0.040120 0.017298 1.075000 1.565167708e-39
0.041659 0.017217 1.070000 1.565167708e-39
0.043384 0.017217 1.070000 1.473326607e-39
0.044773 0.017088 1.062000 1.565522237e-39
0.046486 0.017088 1.062000 1.565522237e-39
0.047881 0.016976 1.055000 1.842109126e-39
0.049347 0.016895 1.050000 2.393482237e-39
0.051041 0.016895 1.050000 3.131047276e-39
0.052433 0.016799 1.044000 4.970273931e-39
0.054117 0.016799 1.044000 5.984425859e-39
0.055533 0.016718 1.039000 8.099883474e-39
0.056934 0.016638 1.034000 9.298426663e-39
0.058601 0.016638 1.034000 1.049372725e-38
0.059977 0.016557 1.029000 1.095470540e-38
0.061637 0.016557 1.029000 1.178194513e-38
0.063050 0.016493 1.025000 1.215072765e-38
0.064577 0.016461 1.023000 1.224220441e-38
0.066227 0.016461 1.023000 1.196561752e-38
0.067811 0.016445 1.022000 1.214928571e-38
0.069459 0.016445 1.022000 1.233367697e-38
0.070968 0.016413 1.020000 1.251806823e-38
0.072471 0.016380 1.018000 1.270245949e-38
0.074113 0.016380 1.018000 1.297904358e-38
0.075531 0.016332 1.015000 1.307123921e-38
0.077168 0.016332 1.015000 1.279573132e-38
0.078650 0.016300 1.013000 1.307231821e-38
0.080204 0.016284 1.012000 1.353329916e-38
0.081837 0.016284 1.012000 1.380988605e-38
0.083304 0.016252 1.010000 1.473040742e-38
0.084933 0.016252 1.010000 1.519138557e-38
0.086390 0.016220 1.008000 1.528358120e-38
0.088016 0.016220 1.008000 1.556016809e-38
0.089642 0.016220 1.008000 1.565236652e-38
0.091177 0.016203 1.007000 1.565236652e-38
0.092617 0.016171 1.005000 1.565236372e-38
0.094238 0.016171 1.005000 1.565236372e-38
0.095668 0.016139 1.003000 1.574419501e-38
0.097285 0.016139 1.003000 1.509882560e-38
0.098903 0.016139 1.003000 1.491371267e-38
0.100521 0.016139 1.003000 1.472932141e-38
0.102138 0.016139 1.003000 1.482043804e-38
0.103652 0.016123 1.002000 1.472824241e-38
0.105268 0.016123 1.002000 1.454385115e-38
0.106671 0.016091 1.000000 1.445165552e-38
0.108067 0.016059 0.998000 1.426726426e-38
0.109677 0.016059 0.998000 1.426726426e-38
0.111286 0.016059 0.998000 1.408287300e-38
0.112783 0.016043 0.997000 1.408287300e-38
0.114391 0.016043 0.997000 1.389848174e-38
0.115999 0.016043 0.997000 1.389848174e-38
0.117607 0.016043 0.997000 1.371444641e-38
0.119215 0.016043 0.997000 1.371444641e-38
0.120580 0.016010 0.995000 1.371444641e-38
0.122185 0.016010 0.995000 1.371444641e-38
0.123790 0.016010 0.995000 1.371444641e-38
0.125395 0.016010 0.995000 1.371444641e-38
0.127255 0.016043 0.997000 1.371444641e-38
0.128863 0.016043 0.997000 1.362225078e-38
0.130470 0.016043 0.997000 1.353005515e-38
0.132078 0.016043 0.997000 1.343785952e-38
0.133686 0.016043 0.997000 1.334674289e-38
0.135294 0.016043 0.997000 1.343893852e-38
0.137040 0.016059 0.998000 1.343893852e-38
0.138649 0.016059 0.998000 1.343893852e-38
0.140259 0.016059 0.998000 1.353113135e-38
0.142153 0.016091 1.000000 1.353113135e-38
0.143766 0.016091 1.000000 1.343893292e-38
0.145378 0.016091 1.000000 1.343893292e-38
0.146991 0.016091 1.000000 1.362224518e-38
0.148604 0.016091 1.000000 1.353004955e-38
0.150217 0.016091 1.000000 1.325454446e-38
0.151830 0.016091 1.000000 1.343893572e-38
0.153135 0.016059 0.998000 1.343893572e-38
0.154745 0.016059 0.998000 1.362332698e-38
0.156355 0.016059 0.998000 1.362404865e-38
0.157964 0.016059 0.998000 1.353185302e-38
0.159574 0.016059 0.998000 1.362476892e-38
0.161022 0.016043 0.997000 1.362476892e-38
0.162793 0.016059 0.998000 1.334818203e-38
0.164402 0.016059 0.998000 1.334818203e-38
0.166012 0.016059 0.998000 1.316486977e-38
0.167622 0.016059 0.998000 1.316486977e-38
0.169231 0.016059 0.998000 1.298119737e-38
0.171183 0.016091 1.000000 1.288900174e-38
0.172796 0.016091 1.000000 1.270461048e-38
0.174758 0.016123 1.002000 1.233582796e-38
0.176902 0.016171 1.005000 1.196632658e-38
0.178523 0.016171 1.005000 1.159754406e-38
0.180502 0.016203 1.007000 1.122876154e-38
0.182126 0.016203 1.007000 1.113656591e-38
0.184297 0.016252 1.010000 1.113548411e-38
0.186479 0.016300 1.013000 1.085889722e-38
0.188112 0.016300 1.013000 1.067450596e-38
0.190495 0.016364 1.017000 1.058231033e-38
0.192325 0.016380 1.018000 1.021460961e-38
0.193966 0.016380 1.018000 9.661435832e-39
0.196377 0.016445 1.022000 9.202618485e-39
0.198025 0.016445 1.022000 8.557249076e-39
0.200260 0.016493 1.025000 6.809497784e-39
0.202307 0.016525 1.027000 5.610954595e-39
0.203963 0.016525 1.027000 3.221075097e-39
0.206220 0.016574 1.030000 2.760096948e-39
0.208285 0.016606 1.032000 2.301642537e-39
0.209949 0.016606 1.032000 2.301642537e-39
0.212434 0.016670 1.036000 2.209809843e-39
0.214105 0.016670 1.036000 2.302005473e-39
0.216400 0.016718 1.039000 2.762983622e-39
0.033308 0.019102 1.079000 3.767432960e-39
0.035048 0.019102 1.079000 3.767432960e-39
0.036720 0.019066 1.077000 2.024347991e-39
0.038457 0.019066 1.077000 1.839956732e-39
0.040008 0.018978 1.072000 1.565167708e-39
0.041503 0.018872 1.066000 1.472972078e-39
0.043222 0.018872 1.066000 1.472972078e-39
0.044731 0.018783 1.061000 1.565167708e-39
0.046442 0.018783 1.061000 1.565522237e-39
0.048153 0.018783 1.061000 1.842109126e-39
0.049347 0.018588 1.050000 2.669348859e-39
0.051041 0.018588 1.050000 3.499109528e-39
0.052433 0.018482 1.044000 5.245781821e-39
0.054117 0.018482 1.044000 6.167738119e-39
0.055533 0.018394 1.039000 8.467947128e-39
0.056934 0.018305 1.034000 9.574294686e-39
0.058601 0.018305 1.034000 1.076959107e-38
0.059977 0.018217 1.029000 1.123056922e-38
0.061637 0.018217 1.029000 1.178194513e-38
0.063050 0.018146 1.025000 1.215072765e-38
0.064577 0.018110 1.023000 1.224220441e-38
0.066227 0.018110 1.023000 1.215000878e-38
0.067811 0.018093 1.022000 1.233367697e-38
0.069459 0.018093 1.022000 1.233367697e-38
0.070968 0.018057 1.020000 1.251806823e-38
0.072471 0.018022 1.018000 1.270245949e-38
0.074113 0.018022 1.018000 1.297904358e-38
0.075531 0.017969 1.015000 1.270245669e-38
0.077168 0.017969 1.015000 1.224327921e-38
0.078650 0.017933 1.013000 1.242767047e-38
0.080204 0.017916 1.012000 1.270498323e-38
0.081837 0.017916 1.012000 1.325815701e-38
0.083304 0.017880 1.010000 1.445670020e-38
0.084933 0.017880 1.010000 1.482548272e-38
0.086390 0.017845 1.008000 1.537757750e-38
0.088016 0.017845 1.008000 1.537757750e-38
0.089642 0.017845 1.008000 1.565344832e-38
0.091177 0.017827 1.007000 1.556125269e-38
0.092617 0.017792 1.005000 1.537685863e-38
0.094238 0.017792 1.005000 1.537685863e-38
0.095668 0.017756 1.003000 1.546905426e-38
0.097285 0.017756 1.003000 1.473148922e-38
0.098903 0.017756 1.003000 1.482223871e-38
0.100521 0.017756 1.003000 1.463784745e-38
0.102138 0.017756 1.003000 1.454493295e-38
0.103652 0.017739 1.002000 1.436054169e-38
0.105268 0.017739 1.002000 1.445165832e-38
0.106671 0.017703 1.000000 1.435946270e-38
0.108067 0.017668 0.998000 1.408287300e-38
0.109677 0.017668 0.998000 1.408287300e-38
0.111286 0.017668 0.998000 1.380628611e-38
0.112783 0.017650 0.997000 1.389848174e-38
0.114391 0.017650 0.997000 1.389848174e-38
0.115999 0.017650 0.997000 1.389848174e-38
0.117607 0.017650 0.997000 1.371444641e-38
0.119215 0.017650 0.997000 1.371444641e-38
0.120580 0.017615 0.995000 1.380664204e-38
0.122185 0.017615 0.995000 1.380664204e-38
0.123790 0.017615 0.995000 1.380664204e-38
0.125395 0.017615 0.995000 1.371444641e-38
0.127255 0.017650 0.997000 1.371444641e-38
0.128863 0.017650 0.997000 1.362225078e-38
0.130470 0.017650 0.997000 1.343785952e-38
0.132078 0.017650 0.997000 1.353005515e-38
0.133686 0.017650 0.997000 1.343893852e-38
0.135294 0.017650 0.997000 1.353113415e-38
0.137040 0.017668 0.998000 1.353113415e-38
0.138649 0.017668 0.998000 1.353113415e-38
0.140259 0.017668 0.998000 1.353113135e-38
0.142153 0.017703 1.000000 1.353113135e-38
0.143766 0.017703 1.000000 1.362224518e-38
0.145378 0.017703 1.000000 1.371444081e-38
0.146991 0.017703 1.000000 1.371444081e-38
0.148307 0.017668 0.998000 1.362224518e-38
0.149916 0.017668 0.998000 1.362224798e-38
0.151526 0.017668 0.998000 1.389883487e-38
0.153135 0.017668 0.998000 1.399210950e-38
0.154590 0.017650 0.997000 1.408430513e-38
0.156198 0.017650 0.997000 1.399283117e-38
0.157806 0.017650 0.997000 1.399283117e-38
0.159414 0.017650 0.997000 1.390099988e-38
0.161022 0.017650 0.997000 1.380880425e-38
0.162630 0.017650 0.997000 1.371660862e-38
0.164238 0.017650 0.997000 1.362441299e-38
0.166012 0.017668 0.998000 1.344110073e-38
0.167622 0.017668 0.998000 1.325670947e-38
0.169231 0.017668 0.998000 1.307303707e-38
0.171183 0.017703 1.000000 1.288864581e-38
0.172796 0.017703 1.000000 1.279645018e-38
0.174758 0.017739 1.002000 1.242766766e-38
0.176550 0.017756 1.003000 1.187484982e-38
0.178167 0.017756 1.003000 1.159826293e-38
0.180502 0.017827 1.007000 1.122948041e-38
0.182126 0.017827 1.007000 1.113728478e-38
0.183933 0.017845 1.008000 1.095217185e-38
0.186295 0.017916 1.012000 1.085997622e-38
0.187927 0.017916 1.012000 1.067558496e-38
0.190121 0.017969 1.015000 1.049119370e-38
0.192325 0.018022 1.018000 1.039899807e-38
0.193966 0.018022 1.018000 9.938019919e-39
0.196377 0.018093 1.022000 9.570682139e-39
0.198025 0.018093 1.022000 8.740921470e-39
0.199869 0.018110 1.023000 7.086084673e-39
0.202307 0.018181 1.027000 5.795345855e-39
0.203963 0.018181 1.027000 3.405466357e-39
0.206220 0.018234 1.030000 2.760096948e-39
0.208285 0.018270 1.032000 2.301642537e-39
0.209949 0.018270 1.032000 2.301642537e-39
0.212024 0.018305 1.034000 2.209809843e-39
0.213691 0.018305 1.034000 2.302005473e-39
0.216400 0.018394 1.039000 2.762983622e-39
0.033308 0.020841 1.079000 3.675956197e-39
0.035048 0.020841 1.079000 3.583760567e-39
0.036720 0.020803 1.077000 1.932871228e-39
0.038457 0.020803 1.077000 1.748479968e-39
0.040008 0.020706 1.072000 1.565167708e-39
0.041503 0.020590 1.066000 1.472972078e-39
0.043222 0.020590 1.066000 1.472972078e-39
0.044731 0.020494 1.061000 1.565167708e-39
0.046442 0.020494 1.061000 1.565522237e-39
0.047881 0.020378 1.055000 1.842109126e-39
0.049253 0.020243 1.048000 2.852661119e-39
0.050944 0.020243 1.048000 3.959008677e-39
0.052383 0.020146 1.043000 5.520570844e-39
0.054065 0.020146 1.043000 6.350331513e-39
0.055426 0.020030 1.037000 9.020397837e-39
0.056823 0.019934 1.032000 1.003454977e-38
0.058488 0.019934 1.032000 1.086178670e-38
0.059977 0.019876 1.029000 1.141496047e-38
0.061637 0.019876 1.029000 1.205853202e-38
0.063050 0.019798 1.025000 1.224292328e-38
0.064577 0.019760 1.023000 1.224220441e-38
0.066227 0.019760 1.023000 1.224220441e-38
0.067811 0.019740 1.022000 1.215000878e-38
0.069459 0.019740 1.022000 1.215000878e-38
0.070829 0.019663 1.018000 1.251806823e-38
0.072400 0.019644 1.017000 1.270245949e-38
0.074040 0.019644 1.017000 1.251914723e-38
0.075531 0.019605 1.015000 1.215036471e-38
0.077168 0.019605 1.015000 1.159863567e-38
0.078572 0.019547 1.012000 1.141424441e-38
0.080046 0.019509 1.010000 1.159935734e-38
0.081675 0.019509 1.010000 1.159935734e-38
0.083139 0.019470 1.008000 1.288974023e-38
0.084765 0.019470 1.008000 1.390389216e-38
0.086305 0.019451 1.007000 1.399608779e-38
0.087929 0.019451 1.007000 1.418047905e-38
0.089553 0.019451 1.007000 1.390352922e-38
0.090996 0.019412 1.005000 1.418011611e-38
0.092432 0.019373 1.003000 1.454889583e-38
0.094050 0.019373 1.003000 1.427230894e-38
0.095572 0.019354 1.002000 1.408683868e-38
0.097188 0.019354 1.002000 1.399464305e-38
0.098804 0.019354 1.002000 1.426942927e-38
0.100420 0.019354 1.002000 1.426942927e-38
0.102036 0.019354 1.002000 1.426906493e-38
0.103445 0.019315 1.000000 1.399247804e-38
0.105058 0.019315 1.000000 1.408395481e-38
0.106458 0.019277 0.998000 1.389956355e-38
0.108067 0.019277 0.998000 1.389956074e-38
0.109677 0.019277 0.998000 1.371516948e-38
0.111175 0.019257 0.997000 1.343858259e-38
0.112783 0.019257 0.997000 1.343858259e-38
0.114391 0.019257 0.997000 1.362297385e-38
0.115999 0.019257 0.997000 1.362297385e-38
0.117607 0.019257 0.997000 1.353077822e-38
0.119215 0.019257 0.997000 1.353077822e-38
0.120580 0.019219 0.995000 1.362332978e-38
0.122185 0.019219 0.995000 1.362332978e-38
0.124039 0.019257 0.997000 1.362332978e-38
0.125647 0.019257 0.997000 1.362332978e-38
0.127255 0.019257 0.997000 1.353113415e-38
0.128863 0.019257 0.997000 1.343893852e-38
0.130470 0.019257 0.997000 1.334674289e-38
0.132078 0.019257 0.997000 1.343893852e-38
0.133686 0.019257 0.997000 1.353113415e-38
0.135294 0.019257 0.997000 1.353113415e-38
0.137040 0.019277 0.998000 1.353113415e-38
0.138649 0.019277 0.998000 1.353113415e-38
0.140259 0.019277 0.998000 1.353113415e-38
0.141868 0.019277 0.998000 1.353113415e-38
0.143478 0.019277 0.998000 1.362224798e-38
0.145088 0.019277 0.998000 1.371444361e-38
0.146697 0.019277 0.998000 1.371444361e-38
0.148307 0.019277 0.998000 1.371444361e-38
0.149916 0.019277 0.998000 1.353113135e-38
0.151526 0.019277 0.998000 1.389991387e-38
0.153135 0.019277 0.998000 1.399283117e-38
0.154590 0.019257 0.997000 1.408502680e-38
0.156198 0.019257 0.997000 1.399319551e-38
0.157806 0.019257 0.997000 1.390099988e-38
0.159414 0.019257 0.997000 1.371768762e-38
0.161022 0.019257 0.997000 1.362549199e-38
0.162630 0.019257 0.997000 1.362549199e-38
0.164238 0.019257 0.997000 1.353329636e-38
0.165846 0.019257 0.997000 1.344181959e-38
0.167454 0.019257 0.997000 1.316523270e-38
0.169231 0.019277 0.998000 1.279753199e-38
0.170841 0.019277 0.998000 1.261314073e-38
0.172450 0.019277 0.998000 1.205996695e-38
0.174409 0.019315 1.000000 1.169118443e-38
0.176374 0.019354 1.002000 1.178229826e-38
0.177990 0.019354 1.002000 1.159790700e-38
0.179785 0.019373 1.003000 1.122947760e-38
0.181403 0.019373 1.003000 1.113728197e-38
0.183750 0.019451 1.007000 1.104436748e-38
0.185926 0.019509 1.010000 1.085997622e-38
0.187555 0.019509 1.010000 1.067558496e-38
0.189746 0.019567 1.013000 1.067558496e-38
0.192136 0.019644 1.017000 1.058338933e-38
0.193776 0.019644 1.017000 1.030680244e-38
0.195993 0.019702 1.020000 9.846545958e-39
0.197638 0.019702 1.020000 9.201176549e-39
0.199673 0.019740 1.022000 7.453069327e-39
0.201913 0.019798 1.025000 6.070134879e-39
0.203566 0.019798 1.025000 3.405466357e-39
0.206020 0.019876 1.029000 2.760096948e-39
0.208285 0.019934 1.032000 2.301642537e-39
0.209949 0.019934 1.032000 2.301642537e-39
0.211614 0.019934 1.032000 2.301286607e-39
0.213691 0.019972 1.034000 2.393482237e-39
0.216400 0.020069 1.039000 2.762983622e-39
0.033246 0.022539 1.077000 3.676310725e-39
0.034983 0.022539 1.077000 3.584115095e-39
0.036652 0.022497 1.075000 1.748479968e-39
0.038386 0.022497 1.075000 1.748479968e-39
0.039933 0.022393 1.070000 1.565167708e-39
0.041425 0.022267 1.064000 1.472972078e-39
0.043141 0.022267 1.064000 1.472972078e-39
0.044646 0.022162 1.059000 1.472972078e-39
0.046354 0.022162 1.059000 1.565167708e-39
0.047790 0.022037 1.053000 1.841754598e-39
0.049253 0.021932 1.048000 3.037052379e-39
0.050944 0.021932 1.048000 4.051204307e-39
0.052383 0.021828 1.043000 6.442164207e-39
0.054065 0.021828 1.043000 7.640707395e-39
0.055373 0.021681 1.036000 9.757241207e-39
0.056823 0.021597 1.032000 1.040261062e-38
0.058488 0.021597 1.032000 1.113837639e-38
0.059861 0.021493 1.027000 1.159935454e-38
0.061517 0.021493 1.027000 1.205961102e-38
0.062927 0.021409 1.023000 1.205961102e-38
0.064577 0.021409 1.023000 1.233440004e-38
0.066227 0.021409 1.023000 1.224220441e-38
0.067678 0.021346 1.020000 1.215000878e-38
0.069323 0.021346 1.020000 1.224220441e-38
0.070829 0.021304 1.018000 1.233475597e-38
0.072257 0.021242 1.015000 1.251914723e-38
0.073894 0.021242 1.015000 1.233547484e-38
0.075382 0.021200 1.013000 1.178230106e-38
0.077016 0.021200 1.013000 1.141424721e-38
0.078572 0.021179 1.012000 1.122985595e-38
0.079887 0.021095 1.008000 1.123057482e-38
0.081513 0.021095 1.008000 1.132277045e-38
0.083056 0.021074 1.007000 1.196778393e-38
0.084680 0.021074 1.007000 1.187558830e-38
0.086133 0.021032 1.005000 1.196778393e-38
0.087754 0.021032 1.005000 1.159900141e-38
0.089375 0.021032 1.005000 1.178374860e-38
0.090815 0.020991 1.003000 1.224472675e-38
0.092340 0.020970 1.002000 1.252131364e-38
0.093956 0.020970 1.002000 1.289009616e-38
0.095381 0.020928 1.000000 1.298157012e-38
0.096994 0.020928 1.000000 1.316596138e-38
0.098804 0.020970 1.002000 1.344146647e-38
0.100220 0.020928 1.000000 1.353366210e-38
0.101833 0.020928 1.000000 1.344110353e-38
0.103239 0.020886 0.998000 1.325671227e-38
0.104848 0.020886 0.998000 1.344002453e-38
0.106458 0.020886 0.998000 1.334782890e-38
0.108067 0.020886 0.998000 1.353149989e-38
0.109677 0.020886 0.998000 1.343930426e-38
0.111175 0.020865 0.997000 1.334638696e-38
0.112783 0.020865 0.997000 1.343858259e-38
0.114391 0.020865 0.997000 1.353077822e-38
0.115999 0.020865 0.997000 1.353077822e-38
0.117607 0.020865 0.997000 1.325419133e-38
0.119215 0.020865 0.997000 1.334638696e-38
0.120580 0.020823 0.995000 1.353113415e-38
0.122185 0.020823 0.995000 1.362332978e-38
0.124039 0.020865 0.997000 1.362332978e-38
0.125647 0.020865 0.997000 1.362332978e-38
0.127255 0.020865 0.997000 1.353113415e-38
0.128863 0.020865 0.997000 1.343893852e-38
0.130470 0.020865 0.997000 1.334674289e-38
0.132078 0.020865 0.997000 1.343893852e-38
0.133686 0.020865 0.997000 1.353113415e-38
0.135294 0.020865 0.997000 1.343893852e-38
0.137040 0.020886 0.998000 1.343893852e-38
0.138649 0.020886 0.998000 1.343893852e-38
0.140259 0.020886 0.998000 1.334674289e-38
0.141868 0.020886 0.998000 1.343893852e-38
0.143478 0.020886 0.998000 1.343893572e-38
0.145088 0.020886 0.998000 1.343893572e-38
0.146697 0.020886 0.998000 1.343893572e-38
0.148307 0.020886 0.998000 1.343893572e-38
0.149916 0.020886 0.998000 1.353113135e-38
0.151526 0.020886 0.998000 1.389991387e-38
0.153135 0.020886 0.998000 1.390063554e-38
0.154590 0.020865 0.997000 1.390063554e-38
0.156198 0.020865 0.997000 1.371660862e-38
0.157806 0.020865 0.997000 1.362441299e-38
0.159414 0.020865 0.997000 1.325671227e-38
0.161022 0.020865 0.997000 1.316451664e-38
0.162630 0.020865 0.997000 1.298192325e-38
0.164238 0.020865 0.997000 1.288972762e-38
0.165846 0.020865 0.997000 1.288972762e-38
0.167454 0.020865 0.997000 1.233655384e-38
0.169231 0.020886 0.998000 1.196849018e-38
0.170841 0.020886 0.998000 1.178409892e-38
0.172450 0.020886 0.998000 1.132276484e-38
0.174409 0.020928 1.000000 1.076959107e-38
0.176374 0.020970 1.002000 1.104581222e-38
0.177990 0.020970 1.002000 1.123020348e-38
0.179785 0.020991 1.003000 1.122947760e-38
0.181403 0.020991 1.003000 1.122947760e-38
0.183750 0.021074 1.007000 1.113656311e-38
0.185926 0.021137 1.010000 1.095217185e-38
0.187555 0.021137 1.010000 1.085997622e-38
0.189746 0.021200 1.013000 1.067558496e-38
0.192136 0.021284 1.017000 1.067558496e-38
0.193776 0.021284 1.017000 1.049119370e-38
0.195993 0.021346 1.020000 1.012241398e-38
0.197638 0.021346 1.020000 9.477044573e-39
0.199673 0.021388 1.022000 7.636741720e-39
0.201913 0.021451 1.025000 6.253807272e-39
0.203566 0.021451 1.025000 3.680974246e-39
0.206020 0.021535 1.029000 2.943409207e-39
0.208285 0.021597 1.032000 2.209446907e-39
0.209949 0.021597 1.032000 2.301642537e-39
0.212434 0.021681 1.036000 2.301286607e-39
0.214105 0.021681 1.036000 2.393482237e-39
0.216400 0.021744 1.039000 2.854460386e-39
0.033246 0.024276 1.077000 3.860701985e-39
0.034983 0.024276 1.077000 3.584115095e-39
0.036652 0.024231 1.075000 1.748479968e-39
0.038386 0.024231 1.075000 1.748479968e-39
0.039933 0.024118 1.070000 1.472972078e-39
0.041425 0.023983 1.064000 1.472972078e-39
0.043141 0.023983 1.064000 1.472972078e-39
0.044646 0.023870 1.059000 1.472972078e-39
0.046354 0.023870 1.059000 1.565522237e-39
0.047790 0.023735 1.053000 1.934304756e-39
0.049253 0.023622 1.048000 3.496588592e-39
0.050944 0.023622 1.048000 4.602936150e-39
0.052383 0.023509 1.043000 7.454514065e-39
0.054065 0.023509 1.043000 8.745252883e-39
0.055373 0.023351 1.036000 1.058592007e-38
0.056823 0.023261 1.032000 1.077031133e-38
0.058488 0.023261 1.032000 1.132276484e-38
0.059861 0.023149 1.027000 1.178374299e-38
0.061517 0.023149 1.027000 1.224292328e-38
0.062927 0.023058 1.023000 1.233511891e-38
0.064577 0.023058 1.023000 1.233440004e-38
0.066227 0.023058 1.023000 1.224220441e-38
0.067678 0.022991 1.020000 1.215000878e-38
0.069323 0.022991 1.020000 1.224220441e-38
0.070829 0.022946 1.018000 1.233440004e-38
0.072257 0.022878 1.015000 1.242659567e-38
0.073894 0.022878 1.015000 1.224292328e-38
0.075382 0.022833 1.013000 1.168974950e-38
0.077016 0.022833 1.013000 1.132204878e-38
0.078572 0.022811 1.012000 1.122985315e-38
0.079887 0.022720 1.008000 1.086178950e-38
0.081513 0.022720 1.008000 1.067739824e-38
0.083056 0.022698 1.007000 1.040153442e-38
0.084680 0.022698 1.007000 1.049373005e-38
0.086133 0.022653 1.005000 1.058592568e-38
0.087754 0.022653 1.005000 1.049373005e-38
0.089375 0.022653 1.005000 1.040261342e-38
0.090815 0.022608 1.003000 1.031041779e-38
0.092340 0.022585 1.002000 1.040261342e-38
0.093956 0.022585 1.002000 1.058700468e-38
0.095381 0.022540 1.000000 1.067811851e-38
0.096994 0.022540 1.000000 1.104690103e-38
0.098804 0.022585 1.002000 1.141496328e-38
0.100220 0.022540 1.000000 1.187594143e-38
0.101833 0.022540 1.000000 1.224400228e-38
0.103239 0.022495 0.998000 1.215180665e-38
0.104848 0.022495 0.998000 1.251986610e-38
0.106458 0.022495 0.998000 1.279645299e-38
0.108067 0.022495 0.998000 1.307123921e-38
0.109677 0.022495 0.998000 1.279465232e-38
0.111175 0.022472 0.997000 1.297904358e-38
0.112783 0.022472 0.997000 1.297904358e-38
0.114391 0.022472 0.997000 1.316271457e-38
0.115999 0.022472 0.997000 1.297832331e-38
0.117607 0.022472 0.997000 1.288612768e-38
0.118976 0.022427 0.995000 1.297832331e-38
0.120580 0.022427 0.995000 1.325526613e-38
0.122185 0.022427 0.995000 1.334746176e-38
0.123790 0.022427 0.995000 1.334746176e-38
0.125395 0.022427 0.995000 1.334746176e-38
0.126999 0.022427 0.995000 1.325526613e-38
0.128604 0.022427 0.995000 1.325526613e-38
0.130209 0.022427 0.995000 1.325526613e-38
0.132078 0.022472 0.997000 1.325526613e-38
0.133686 0.022472 0.997000 1.334746176e-38
0.135294 0.022472 0.997000 1.325526613e-38
0.136902 0.022472 0.997000 1.316307050e-38
0.138510 0.022472 0.997000 1.316307050e-38
0.140259 0.022495 0.998000 1.316307050e-38
0.141868 0.022495 0.998000 1.316307050e-38
0.143478 0.022495 0.998000 1.316307050e-38
0.145088 0.022495 0.998000 1.297867924e-38
0.146697 0.022495 0.998000 1.288648361e-38
0.148307 0.022495 0.998000 1.288648361e-38
0.149916 0.022495 0.998000 1.297867924e-38
0.151526 0.022495 0.998000 1.288648361e-38
0.153135 0.022495 0.998000 1.297939951e-38
0.154745 0.022495 0.998000 1.270281262e-38
0.156355 0.022495 0.998000 1.242766766e-38
0.157964 0.022495 0.998000 1.242766766e-38
0.159574 0.022495 0.998000 1.224435821e-38
0.161022 0.022472 0.997000 1.187557569e-38
0.162793 0.022495 0.998000 1.196777132e-38
0.164402 0.022495 0.998000 1.205996695e-38
0.166012 0.022495 0.998000 1.141496047e-38
0.167622 0.022495 0.998000 1.141496047e-38
0.169231 0.022495 0.998000 1.113837359e-38
0.170841 0.022495 0.998000 1.058519981e-38
0.172450 0.022495 0.998000 1.030861292e-38
0.174409 0.022540 1.000000 1.030861292e-38
0.176374 0.022585 1.002000 1.049336011e-38
0.177990 0.022585 1.002000 1.086214263e-38
0.179785 0.022608 1.003000 1.122948041e-38
0.181403 0.022608 1.003000 1.122948041e-38
0.183750 0.022698 1.007000 1.104508634e-38
0.185926 0.022765 1.010000 1.086069508e-38
0.187555 0.022765 1.010000 1.085997622e-38
0.189559 0.022811 1.012000 1.085997622e-38
0.192136 0.022923 1.017000 1.095217185e-38
0.193776 0.022923 1.017000 1.058338933e-38
0.195608 0.022946 1.018000 1.021460961e-38
0.197250 0.022946 1.018000 9.477044573e-39
0.199673 0.023036 1.022000 7.912246807e-39
0.201913 0.023104 1.025000 6.529312359e-39
0.203566 0.023104 1.025000 3.772451010e-39
0.206020 0.023194 1.029000 3.127081601e-39
0.208285 0.023261 1.032000 2.209446907e-39
0.209949 0.023261 1.032000 2.209446907e-39
0.212434 0.023351 1.036000 2.301286607e-39
0.214105 0.023351 1.036000 2.485677867e-39
0.216400 0.023419 1.039000 2.854460386e-39
0.033154 0.025940 1.074000 3.859983119e-39
0.034886 0.025940 1.074000 3.675591859e-39
0.036550 0.025891 1.072000 1.748479968e-39
0.038279 0.025891 1.072000 1.748479968e-39
0.039858 0.025795 1.068000 1.381495314e-39
0.041347 0.025650 1.062000 1.381495314e-39
0.043060 0.025650 1.062000 1.381495314e-39
0.044562 0.025529 1.057000 1.381495314e-39
0.046267 0.025529 1.057000 1.565522237e-39
0.047745 0.025408 1.052000 2.118696016e-39
0.049159 0.025263 1.046000 3.772456615e-39
0.050846 0.025263 1.046000 5.708564842e-39
0.052282 0.025143 1.041000 9.020397837e-39
0.053961 0.025143 1.041000 9.665767246e-39
0.055373 0.025022 1.036000 1.095398233e-38
0.056713 0.024877 1.030000 1.132276484e-38
0.058374 0.024877 1.030000 1.150679317e-38
0.059861 0.024804 1.027000 1.187557569e-38
0.061517 0.024804 1.027000 1.233511891e-38
0.062927 0.024708 1.023000 1.224292328e-38
0.064514 0.024684 1.022000 1.224220441e-38
0.066162 0.024684 1.022000 1.224220441e-38
0.067678 0.024635 1.020000 1.196561752e-38
0.069323 0.024635 1.020000 1.215000878e-38
0.070759 0.024563 1.017000 1.187414076e-38
0.072257 0.024515 1.015000 1.178194513e-38
0.073894 0.024515 1.015000 1.169083130e-38
0.075382 0.024466 1.013000 1.150644004e-38
0.077016 0.024466 1.013000 1.123057202e-38
0.078417 0.024394 1.010000 1.095398513e-38
0.079887 0.024346 1.008000 1.058592568e-38
0.081513 0.024346 1.008000 1.030933879e-38
0.083056 0.024321 1.007000 1.003275190e-38
0.084680 0.024321 1.007000 9.848360640e-39
0.086133 0.024273 1.005000 9.481020056e-39
0.087579 0.024225 1.003000 9.020041907e-39
0.089197 0.024225 1.003000 8.837085577e-39
0.090815 0.024225 1.003000 8.744889947e-39
0.092156 0.024152 1.000000 8.837804443e-39
0.093769 0.024152 1.000000 8.745608813e-39
0.095381 0.024152 1.000000 9.573571616e-39
0.096994 0.024152 1.000000 9.573571616e-39
0.098607 0.024152 1.000000 9.757244010e-39
0.100220 0.024152 1.000000 1.021822216e-38
0.101833 0.024152 1.000000 1.076959387e-38
0.103239 0.024104 0.998000 1.113837639e-38
0.104848 0.024104 0.998000 1.159863287e-38
0.106458 0.024104 0.998000 1.187521976e-38
0.107959 0.024080 0.997000 1.224327640e-38
0.109567 0.024080 0.997000 1.224327640e-38
0.111175 0.024080 0.997000 1.251914443e-38
0.112783 0.024080 0.997000 1.251914443e-38
0.114391 0.024080 0.997000 1.242694880e-38
0.115999 0.024080 0.997000 1.242694880e-38
0.117607 0.024080 0.997000 1.224255754e-38
0.118976 0.024032 0.995000 1.251914443e-38
0.120580 0.024032 0.995000 1.279465232e-38
0.122185 0.024032 0.995000 1.297904358e-38
0.123790 0.024032 0.995000 1.297939951e-38
0.125395 0.024032 0.995000 1.297939951e-38
0.126999 0.024032 0.995000 1.279500825e-38
0.128604 0.024032 0.995000 1.279500825e-38
0.130209 0.024032 0.995000 1.297867924e-38
0.132078 0.024080 0.997000 1.297867924e-38
0.133686 0.024080 0.997000 1.316307050e-38
0.135294 0.024080 0.997000 1.297867924e-38
0.136902 0.024080 0.997000 1.288648361e-38
0.138510 0.024080 0.997000 1.279428798e-38
0.140118 0.024080 0.997000 1.270209235e-38
0.141868 0.024104 0.998000 1.251770109e-38
0.143478 0.024104 0.998000 1.260989672e-38
0.145088 0.024104 0.998000 1.233330983e-38
0.146697 0.024104 0.998000 1.224111420e-38
0.148307 0.024104 0.998000 1.196452731e-38
0.149916 0.024104 0.998000 1.178085632e-38
0.151526 0.024104 0.998000 1.150426943e-38
0.153135 0.024104 0.998000 1.159790700e-38
0.154745 0.024104 0.998000 1.141351574e-38
0.156355 0.024104 0.998000 1.040188474e-38
0.157964 0.024104 0.998000 1.049408037e-38
0.159574 0.024104 0.998000 1.030933318e-38
0.161183 0.024104 0.998000 1.003274629e-38
0.162793 0.024104 0.998000 9.756162207e-39
0.164402 0.024104 0.998000 9.940553467e-39
0.166012 0.024104 0.998000 1.012494473e-38
0.167622 0.024104 0.998000 1.003274910e-38
0.169231 0.024104 0.998000 1.003274910e-38
0.170841 0.024104 0.998000 9.940553467e-39
0.172450 0.024104 0.998000 9.848357837e-39
0.174409 0.024152 1.000000 9.848357837e-39
0.176374 0.024201 1.002000 1.003274629e-38
0.177990 0.024201 1.002000 1.058592007e-38
0.179785 0.024225 1.003000 1.104616815e-38
0.181403 0.024225 1.003000 1.123055941e-38
0.183750 0.024321 1.007000 1.104508634e-38
0.185926 0.024394 1.010000 1.086069508e-38
0.187555 0.024394 1.010000 1.085997622e-38
0.189559 0.024442 1.012000 1.085997622e-38
0.192136 0.024563 1.017000 1.095217185e-38
0.193776 0.024563 1.017000 1.067558496e-38
0.195608 0.024587 1.018000 1.021460681e-38
0.197250 0.024587 1.018000 9.661433030e-39
0.199673 0.024684 1.022000 8.096993997e-39
0.201913 0.024756 1.025000 6.806255179e-39
0.203566 0.024756 1.025000 3.956122002e-39
0.206020 0.024853 1.029000 3.402948223e-39
0.208285 0.024925 1.032000 2.393117899e-39
0.209949 0.024925 1.032000 2.393117899e-39
0.212434 0.025022 1.036000 2.209446907e-39
0.214105 0.025022 1.036000 2.486033796e-39
0.216400 0.025094 1.039000 2.854460386e-39
0.033154 0.027671 1.074000 3.308607205e-39
0.034886 0.027671 1.074000 3.308607205e-39
0.036550 0.027620 1.072000 1.748479968e-39
0.038279 0.027620 1.072000 1.748479968e-39
0.039784 0.027465 1.066000 1.381495314e-39
0.041308 0.027336 1.061000 1.381495314e-39
0.043020 0.027336 1.061000 1.381495314e-39
0.044478 0.027182 1.055000 1.381495314e-39
0.046179 0.027182 1.055000 1.933225756e-39
0.047654 0.027053 1.050000 2.394203906e-39
0.049065 0.026898 1.044000 4.232711695e-39
0.050749 0.026898 1.044000 6.445406811e-39
0.052182 0.026769 1.039000 9.941632467e-39
0.053857 0.026769 1.039000 1.021821936e-38
0.055266 0.026641 1.034000 1.122985035e-38
0.056658 0.026512 1.029000 1.159863287e-38
0.058318 0.026512 1.029000 1.187449669e-38
0.059744 0.026409 1.025000 1.205888795e-38
0.061397 0.026409 1.025000 1.224327921e-38
0.062927 0.026357 1.023000 1.224327921e-38
0.064514 0.026331 1.022000 1.224256034e-38
0.066162 0.026331 1.022000 1.215036471e-38
0.067811 0.026331 1.022000 1.187342189e-38
0.069323 0.026280 1.020000 1.168903063e-38
0.070759 0.026203 1.017000 1.150536104e-38
0.072257 0.026151 1.015000 1.150536104e-38
0.073894 0.026151 1.015000 1.123057482e-38
0.075382 0.026100 1.013000 1.132277045e-38
0.077016 0.026100 1.013000 1.123057482e-38
0.078417 0.026022 1.010000 1.095398793e-38
0.079887 0.025971 1.008000 1.049373005e-38
0.081513 0.025971 1.008000 1.003275190e-38
0.083056 0.025945 1.007000 9.480657120e-39
0.084680 0.025945 1.007000 9.019678971e-39
0.086133 0.025894 1.005000 8.560142758e-39
0.087579 0.025842 1.003000 7.914773349e-39
0.089197 0.025842 1.003000 7.731103758e-39
0.090815 0.025842 1.003000 7.731103758e-39
0.092156 0.025765 1.000000 7.547429963e-39
0.093769 0.025765 1.000000 7.270843073e-39
0.095381 0.025765 1.000000 8.007687845e-39
0.096994 0.025765 1.000000 8.192079104e-39
0.098607 0.025765 1.000000 8.560498687e-39
0.100220 0.025765 1.000000 8.837085577e-39
0.101833 0.025765 1.000000 9.388461490e-39
0.103239 0.025713 0.998000 9.757244010e-39
0.104848 0.025713 0.998000 1.030933879e-38
0.106458 0.025713 0.998000 1.049373005e-38
0.107959 0.025687 0.997000 1.104545909e-38
0.109567 0.025687 0.997000 1.141424161e-38
0.111175 0.025687 0.997000 1.169010263e-38
0.112783 0.025687 0.997000 1.169010263e-38
0.114391 0.025687 0.997000 1.178157939e-38
0.115999 0.025687 0.997000 1.187377502e-38
0.117607 0.025687 0.997000 1.205708728e-38
0.118976 0.025636 0.995000 1.233367417e-38
0.120580 0.025636 0.995000 1.251806543e-38
0.122185 0.025636 0.995000 1.261026106e-38
0.123790 0.025636 0.995000 1.261061699e-38
0.125395 0.025636 0.995000 1.261061699e-38
0.126999 0.025636 0.995000 1.261061699e-38
0.128604 0.025636 0.995000 1.261061699e-38
0.130209 0.025636 0.995000 1.270209235e-38
0.132078 0.025687 0.997000 1.279428798e-38
0.133686 0.025687 0.997000 1.279428798e-38
0.135294 0.025687 0.997000 1.260989672e-38
0.136902 0.025687 0.997000 1.251770109e-38
0.138510 0.025687 0.997000 1.214891857e-38
0.140118 0.025687 0.997000 1.214891857e-38
0.141868 0.025713 0.998000 1.196452731e-38
0.143478 0.025713 0.998000 1.178050039e-38
0.145088 0.025713 0.998000 1.150391350e-38
0.146697 0.025713 0.998000 1.131952224e-38
0.148307 0.025713 0.998000 1.104293535e-38
0.149916 0.025713 0.998000 9.845836901e-39
0.151526 0.025713 0.998000 9.384858752e-39
0.153135 0.025713 0.998000 9.202988428e-39
0.154745 0.025713 0.998000 9.018597168e-39
0.156355 0.025713 0.998000 8.375025625e-39
0.157964 0.025713 0.998000 8.467221255e-39
0.159574 0.025713 0.998000 8.282832798e-39
0.161183 0.025713 0.998000 8.006245908e-39
0.162793 0.025713 0.998000 8.282832798e-39
0.164402 0.025713 0.998000 8.190637168e-39
0.166012 0.025713 0.998000 8.651615317e-39
0.167622 0.025713 0.998000 8.743810947e-39
0.169231 0.025713 0.998000 9.020397837e-39
0.170841 0.025713 0.998000 9.112593467e-39
0.172450 0.025713 0.998000 9.572849947e-39
0.174409 0.025765 1.000000 9.572849947e-39
0.176374 0.025816 1.002000 9.849434034e-39
0.177990 0.025816 1.002000 1.031041218e-38
0.179785 0.025842 1.003000 1.095361659e-38
0.181403 0.025842 1.003000 1.104581222e-38
0.183750 0.025945 1.007000 1.104508915e-38
0.185558 0.025971 1.008000 1.095289352e-38
0.187184 0.025971 1.008000 1.095217185e-38
0.189559 0.026074 1.012000 1.095217185e-38
0.192136 0.026203 1.017000 1.095217185e-38
0.193776 0.026203 1.017000 1.067558496e-38
0.195608 0.026228 1.018000 1.030680244e-38
0.197250 0.026228 1.018000 9.845824290e-39
0.199673 0.026331 1.022000 8.649444706e-39
0.201913 0.026409 1.025000 7.358705888e-39
0.203566 0.026409 1.025000 4.231985822e-39
0.206220 0.026538 1.030000 3.771007673e-39
0.208285 0.026589 1.032000 2.393117899e-39
0.209949 0.026589 1.032000 2.300922269e-39
0.212639 0.026718 1.037000 2.209090977e-39
0.214311 0.026718 1.037000 2.393482237e-39
0.217234 0.026873 1.043000 2.854460386e-39
0.219126 0.026898 1.044000 3.038851646e-39
0.033154 0.029403 1.074000 2.573205771e-39
0.034886 0.029403 1.074000 2.849792661e-39
0.036550 0.029348 1.072000 1.565167708e-39
0.038279 0.029348 1.072000 1.565167708e-39
0.039784 0.029184 1.066000 1.381495314e-39
0.041308 0.029047 1.061000 1.381495314e-39
0.043020 0.029047 1.061000 1.381495314e-39
0.044478 0.028883 1.055000 1.473690944e-39
0.046179 0.028883 1.055000 2.116898150e-39
0.047654 0.028746 1.050000 2.670071929e-39
0.049065 0.028582 1.044000 5.151788325e-39
0.050749 0.028582 1.044000 8.194244110e-39
0.052182 0.028445 1.039000 1.012494192e-38
0.053857 0.028445 1.039000 1.077031133e-38
0.055266 0.028308 1.034000 1.132204598e-38
0.056658 0.028171 1.029000 1.169082850e-38
0.058318 0.028171 1.029000 1.205853202e-38
0.059744 0.028061 1.025000 1.205853202e-38
0.061397 0.028061 1.025000 1.233440004e-38
0.062927 0.028007 1.023000 1.233440004e-38
0.064514 0.027979 1.022000 1.215000878e-38
0.066162 0.027979 1.022000 1.196561752e-38
0.067545 0.027870 1.018000 1.168974950e-38
0.069187 0.027870 1.018000 1.159755387e-38
0.070759 0.027842 1.017000 1.122985315e-38
0.072257 0.027788 1.015000 1.122985315e-38
0.073894 0.027788 1.015000 1.113837919e-38
0.075308 0.027706 1.012000 1.123057482e-38
0.076940 0.027706 1.012000 1.123057482e-38
0.078417 0.027651 1.010000 1.086179230e-38
0.079887 0.027596 1.008000 1.040153442e-38
0.081513 0.027596 1.008000 1.003275190e-38
0.083056 0.027569 1.007000 9.296984726e-39
0.084512 0.027514 1.005000 8.743810947e-39
0.086133 0.027514 1.005000 8.007690647e-39
0.087579 0.027459 1.003000 7.362321238e-39
0.089197 0.027459 1.003000 6.994258986e-39
0.090724 0.027432 1.002000 6.625476467e-39
0.092156 0.027377 1.000000 6.901707426e-39
0.093769 0.027377 1.000000 6.993903056e-39
0.095381 0.027377 1.000000 7.086451813e-39
0.096994 0.027377 1.000000 7.178647443e-39
0.098607 0.027377 1.000000 7.731456885e-39
0.100019 0.027322 0.998000 7.915848144e-39
0.101629 0.027322 0.998000 8.467224058e-39
0.103239 0.027322 0.998000 8.651615317e-39
0.104848 0.027322 0.998000 9.204070231e-39
0.106351 0.027295 0.997000 9.665048380e-39
0.107959 0.027295 0.997000 1.003202883e-38
0.109567 0.027295 0.997000 1.058520261e-38
0.111175 0.027295 0.997000 1.095254039e-38
0.112783 0.027295 0.997000 1.113693165e-38
0.114391 0.027295 0.997000 1.122840841e-38
0.115999 0.027295 0.997000 1.132060404e-38
0.117607 0.027295 0.997000 1.150391350e-38
0.119215 0.027295 0.997000 1.187269602e-38
0.120580 0.027240 0.995000 1.205708728e-38
0.122185 0.027240 0.995000 1.233367417e-38
0.123790 0.027240 0.995000 1.214928291e-38
0.125395 0.027240 0.995000 1.233367417e-38
0.126999 0.027240 0.995000 1.233403010e-38
0.128863 0.027295 0.997000 1.233403010e-38
0.130470 0.027295 0.997000 1.251770109e-38
0.132078 0.027295 0.997000 1.251770109e-38
0.133686 0.027295 0.997000 1.251770109e-38
0.135294 0.027295 0.997000 1.224111420e-38
0.136902 0.027295 0.997000 1.187305195e-38
0.138510 0.027295 0.997000 1.168866069e-38
0.140118 0.027295 0.997000 1.150534843e-38
0.141868 0.027322 0.998000 1.122876154e-38
0.143478 0.027322 0.998000 1.113620998e-38
0.145088 0.027322 0.998000 1.095181872e-38
0.146697 0.027322 0.998000 1.030681505e-38
0.148307 0.027322 0.998000 9.753641271e-39
0.149916 0.027322 0.998000 8.465426192e-39
0.151526 0.027322 0.998000 8.281034932e-39
0.153135 0.027322 0.998000 7.821854649e-39
0.154745 0.027322 0.998000 7.821854649e-39
0.156355 0.027322 0.998000 7.270478735e-39
0.157964 0.027322 0.998000 7.178283106e-39
0.159574 0.027322 0.998000 6.901696216e-39
0.161183 0.027322 0.998000 6.809500586e-39
0.162793 0.027322 0.998000 6.717669294e-39
0.164402 0.027322 0.998000 6.994256183e-39
0.166012 0.027322 0.998000 7.362318435e-39
0.167622 0.027322 0.998000 7.731100955e-39
0.169231 0.027322 0.998000 8.468303058e-39
0.170841 0.027322 0.998000 8.744889947e-39
0.172450 0.027322 0.998000 9.481373184e-39
0.174409 0.027377 1.000000 9.573568813e-39
0.176374 0.027432 1.002000 1.012494192e-38
0.177990 0.027432 1.002000 1.049372444e-38
0.179785 0.027459 1.003000 1.076994700e-38
0.181403 0.027459 1.003000 1.086214263e-38
0.183750 0.027569 1.007000 1.086177689e-38
0.185558 0.027596 1.008000 1.076958126e-38
0.187184 0.027596 1.008000 1.095217185e-38
0.189559 0.027706 1.012000 1.095217185e-38
0.192136 0.027842 1.017000 1.095217185e-38
0.193776 0.027842 1.017000 1.067558496e-38
0.195608 0.027870 1.018000 1.049119370e-38
0.197250 0.027870 1.018000 9.938019919e-39
0.199869 0.028007 1.023000 8.833835966e-39
0.202307 0.028116 1.027000 7.819684037e-39
0.203963 0.028116 1.027000 4.967752995e-39
0.206220 0.028198 1.030000 4.230187956e-39
0.209092 0.028363 1.036000 2.668625789e-39
0.210763 0.028363 1.036000 2.484234529e-39
0.213049 0.028445 1.039000 2.209090977e-39
0.215758 0.028582 1.044000 2.393482237e-39
0.217442 0.028582 1.044000 2.762264756e-39
0.219545 0.028636 1.046000 3.038851646e-39
0.033185 0.031163 1.075000 2.389538983e-39
0.034918 0.031163 1.075000 2.758321502e-39
0.036550 0.031077 1.072000 1.472972078e-39
0.038279 0.031077 1.072000 1.472972078e-39
0.039784 0.030903 1.066000 1.381495314e-39
0.041308 0.030758 1.061000 1.289299685e-39
0.043020 0.030758 1.061000 1.381495314e-39
0.044478 0.030584 1.055000 1.473690944e-39
0.046179 0.030584 1.055000 2.484957599e-39
0.047654 0.030439 1.050000 3.130327008e-39
0.049065 0.030265 1.044000 7.363041505e-39
0.050749 0.030265 1.044000 9.022562843e-39
0.052182 0.030120 1.039000 1.086178950e-38
0.053857 0.030120 1.039000 1.123057202e-38
0.055159 0.029917 1.032000 1.168974950e-38
0.056548 0.029772 1.027000 1.205853202e-38
0.058204 0.029772 1.027000 1.224220441e-38
0.059628 0.029656 1.023000 1.224220441e-38
0.061278 0.029656 1.023000 1.233440004e-38
0.062866 0.029627 1.022000 1.233440004e-38
0.064388 0.029569 1.020000 1.215000878e-38
0.066033 0.029569 1.020000 1.196561752e-38
0.067545 0.029511 1.018000 1.168974950e-38
0.069187 0.029511 1.018000 1.159755387e-38
0.070620 0.029424 1.015000 1.141424441e-38
0.072115 0.029366 1.013000 1.132204878e-38
0.073749 0.029366 1.013000 1.132276765e-38
0.075159 0.029279 1.010000 1.132276765e-38
0.076788 0.029279 1.010000 1.123057202e-38
0.078262 0.029221 1.008000 1.086178950e-38
0.079808 0.029192 1.007000 1.040153442e-38
0.081432 0.029192 1.007000 1.003275190e-38
0.082891 0.029134 1.005000 9.296984726e-39
0.084344 0.029076 1.003000 8.467224058e-39
0.085962 0.029076 1.003000 7.731103758e-39
0.087579 0.029076 1.003000 7.270125608e-39
0.089197 0.029076 1.003000 6.717316167e-39
0.090724 0.029047 1.002000 6.532924907e-39
0.092156 0.028989 1.000000 6.442164207e-39
0.093769 0.028989 1.000000 6.534359837e-39
0.095381 0.028989 1.000000 6.442161404e-39
0.096994 0.028989 1.000000 6.718748294e-39
0.098607 0.028989 1.000000 7.270122806e-39
0.100220 0.028989 1.000000 7.362318435e-39
0.101833 0.028989 1.000000 7.546346759e-39
0.103239 0.028931 0.998000 7.822933648e-39
0.104848 0.028931 0.998000 8.282832798e-39
0.106458 0.028931 0.998000 8.651615317e-39
0.107959 0.028902 0.997000 9.019678971e-39
0.109567 0.028902 0.997000 9.204070231e-39
0.111175 0.028902 0.997000 9.939467461e-39
0.112783 0.028902 0.997000 1.021605435e-38
0.114391 0.028902 0.997000 1.067523463e-38
0.115999 0.028902 0.997000 1.085962589e-38
0.117607 0.028902 0.997000 1.122732661e-38
0.119215 0.028902 0.997000 1.150391350e-38
0.120823 0.028902 0.997000 1.178050039e-38
0.122431 0.028902 0.997000 1.187269602e-38
0.124039 0.028902 0.997000 1.178050039e-38
0.125647 0.028902 0.997000 1.196489165e-38
0.126999 0.028844 0.995000 1.214891857e-38
0.128863 0.028902 0.997000 1.214891857e-38
0.130470 0.028902 0.997000 1.214891857e-38
0.132078 0.028902 0.997000 1.214891857e-38
0.133686 0.028902 0.997000 1.187305195e-38
0.135294 0.028902 0.997000 1.168866069e-38
0.136902 0.028902 0.997000 1.141171787e-38
0.138510 0.028902 0.997000 1.131952224e-38
0.140118 0.028902 0.997000 1.095253759e-38
0.141868 0.028931 0.998000 1.076814633e-38
0.143478 0.028931 0.998000 1.021605435e-38
0.145088 0.028931 0.998000 1.003166309e-38
0.146697 0.028931 0.998000 9.294463791e-39
0.148307 0.028931 0.998000 8.464703122e-39
0.149916 0.028931 0.998000 7.545267759e-39
0.151526 0.028931 0.998000 7.360876499e-39
0.153135 0.028931 0.998000 6.809500586e-39
0.154745 0.028931 0.998000 6.809500586e-39
0.156355 0.028931 0.998000 6.349242704e-39
0.157964 0.028931 0.998000 6.257047074e-39
0.159574 0.028931 0.998000 5.888987625e-39
0.161183 0.028931 0.998000 5.888987625e-39
0.162793 0.028931 0.998000 5.888987625e-39
0.164402 0.028931 0.998000 6.165574514e-39
0.166012 0.028931 0.998000 6.534359837e-39
0.167622 0.028931 0.998000 6.903142356e-39
0.169231 0.028931 0.998000 8.099883474e-39
0.170841 0.028931 0.998000 8.560861624e-39
0.172450 0.028931 0.998000 9.389180356e-39
0.174409 0.028989 1.000000 9.573571616e-39
0.176374 0.029047 1.002000 1.012494473e-38
0.177990 0.029047 1.002000 1.040153162e-38
0.179785 0.029076 1.003000 1.076994700e-38
0.181403 0.029076 1.003000 1.076994700e-38
0.183750 0.029192 1.007000 1.086177689e-38
0.185558 0.029221 1.008000 1.076958126e-38
0.187184 0.029221 1.008000 1.095289071e-38
0.189559 0.029337 1.012000 1.095289071e-38
0.192136 0.029482 1.017000 1.095217185e-38
0.193776 0.029482 1.017000 1.085997622e-38
0.195608 0.029511 1.018000 1.049119370e-38
0.197250 0.029511 1.018000 1.021460681e-38
0.199869 0.029656 1.023000 9.294451179e-39
0.202307 0.029772 1.027000 8.280299250e-39
0.203963 0.029772 1.027000 5.612400735e-39
0.206220 0.029859 1.030000 4.413857547e-39
0.209092 0.030033 1.036000 2.760821419e-39
0.210763 0.030033 1.036000 2.484234529e-39
0.213049 0.030120 1.039000 2.209090977e-39
0.215758 0.030265 1.044000 2.301286607e-39
0.217442 0.030265 1.044000 2.762264756e-39
0.219545 0.030323 1.046000 2.946656016e-39
0.033185 0.032897 1.075000 2.205870793e-39
0.034918 0.032897 1.075000 2.574653313e-39
0.036550 0.032805 1.072000 1.656284338e-39
0.038279 0.032805 1.072000 1.656284338e-39
0.039784 0.032621 1.066000 1.381495314e-39
0.041308 0.032468 1.061000 1.289299685e-39
0.043020 0.032468 1.061000 1.381495314e-39
0.044478 0.032285 1.055000 1.750277834e-39
0.046179 0.032285 1.055000 2.851942253e-39
0.047654 0.032132 1.050000 3.866094181e-39
0.049065 0.031948 1.044000 9.757606946e-39
0.050749 0.031948 1.044000 1.021858510e-38
0.052182 0.031795 1.039000 1.122985315e-38
0.053857 0.031795 1.039000 1.141424441e-38
0.055159 0.031581 1.032000 1.178194513e-38
0.056548 0.031428 1.027000 1.215072765e-38
0.058204 0.031428 1.027000 1.224220441e-38
0.059628 0.031305 1.023000 1.224220441e-38
0.061278 0.031305 1.023000 1.233440004e-38
0.062866 0.031275 1.022000 1.233440004e-38
0.064388 0.031214 1.020000 1.215072765e-38
0.066033 0.031214 1.020000 1.187414076e-38
0.067545 0.031152 1.018000 1.159863287e-38
0.069187 0.031152 1.018000 1.150643724e-38
0.070620 0.031061 1.015000 1.150644004e-38
0.072115 0.030999 1.013000 1.150644004e-38
0.073749 0.030999 1.013000 1.150644004e-38
0.075159 0.030908 1.010000 1.141424441e-38
0.076788 0.030908 1.010000 1.123057202e-38
0.078262 0.030846 1.008000 1.086178950e-38
0.079808 0.030816 1.007000 1.030933879e-38
0.081432 0.030816 1.007000 1.003275190e-38
0.082891 0.030755 1.005000 9.203714301e-39
0.084344 0.030693 1.003000 8.558344892e-39
0.085962 0.030693 1.003000 7.822580521e-39
0.087579 0.030693 1.003000 7.269406742e-39
0.089197 0.030693 1.003000 6.717672096e-39
0.090724 0.030663 1.002000 6.533280837e-39
0.092156 0.030602 1.000000 6.625476467e-39
0.093769 0.030602 1.000000 6.625476467e-39
0.095381 0.030602 1.000000 6.533280837e-39
0.096994 0.030602 1.000000 6.625476467e-39
0.098607 0.030602 1.000000 7.085731546e-39
0.100220 0.030602 1.000000 7.085731546e-39
0.101833 0.030602 1.000000 7.361599569e-39
0.103239 0.030540 0.998000 7.453795199e-39
0.104848 0.030540 0.998000 7.638542389e-39
0.106458 0.030540 0.998000 8.007324908e-39
0.107959 0.030510 0.997000 8.099520538e-39
0.109567 0.030510 0.997000 8.468303058e-39
0.111175 0.030510 0.997000 9.110789996e-39
0.112783 0.030510 0.997000 9.387376885e-39
0.114391 0.030510 0.997000 9.939467461e-39
0.115999 0.030510 0.997000 1.012385872e-38
0.117607 0.030510 0.997000 1.085962309e-38
0.119215 0.030510 0.997000 1.095181872e-38
0.120823 0.030510 0.997000 1.131987817e-38
0.122431 0.030510 0.997000 1.141207380e-38
0.124039 0.030510 0.997000 1.150426943e-38
0.125647 0.030510 0.997000 1.168866069e-38
0.127255 0.030510 0.997000 1.168866069e-38
0.128863 0.030510 0.997000 1.168866069e-38
0.130470 0.030510 0.997000 1.178085632e-38
0.132078 0.030510 0.997000 1.150426943e-38
0.133686 0.030510 0.997000 1.141171787e-38
0.135294 0.030510 0.997000 1.131952224e-38
0.136902 0.030510 0.997000 1.095181872e-38
0.138510 0.030510 0.997000 1.067523183e-38
0.140118 0.030510 0.997000 1.021605155e-38
0.141868 0.030540 0.998000 1.003166029e-38
0.143478 0.030540 0.998000 9.479208177e-39
0.145088 0.030540 0.998000 9.110425658e-39
0.146697 0.030540 0.998000 8.282113932e-39
0.148307 0.030540 0.998000 7.636744523e-39
0.149916 0.030540 0.998000 6.900977350e-39
0.151526 0.030540 0.998000 6.808781720e-39
0.153135 0.030540 0.998000 6.532913697e-39
0.154745 0.030540 0.998000 6.532913697e-39
0.156355 0.030540 0.998000 6.072299885e-39
0.157964 0.030540 0.998000 5.980104255e-39
0.159574 0.030540 0.998000 5.704596365e-39
0.161183 0.030540 0.998000 5.612400735e-39
0.162793 0.030540 0.998000 5.613119601e-39
0.164402 0.030540 0.998000 5.981902121e-39
0.166012 0.030540 0.998000 6.166293381e-39
0.167622 0.030540 0.998000 6.719467160e-39
0.169231 0.030540 0.998000 8.007687845e-39
0.170841 0.030540 0.998000 8.468665994e-39
0.172450 0.030540 0.998000 9.389180356e-39
0.174409 0.030602 1.000000 9.665767246e-39
0.176374 0.030663 1.002000 1.012494473e-38
