# This PCD file was generated using the MATLAB® pcwrite function
# from Computer Vision Toolbox®.
# .PCD v.7 - Point Cloud Data file format
VERSION .7
FIELDS x y z rgb
SIZE 4 4 4 4
TYPE F F F F
COUNT 1 1 1 1
WIDTH 1102
HEIGHT 1
VIEWPOINT 0 0 0 1 0 0 0
POINTS 1102
DATA ascii
0.126278 0.271625 1.015000 1.381849843e-39
0.127915 0.271625 1.015000 1.381849843e-39
0.129552 0.271625 1.015000 1.658436733e-39
0.131448 0.272161 1.017000 1.750632362e-39
0.133088 0.272161 1.017000 2.027219252e-39
0.134860 0.272428 1.018000 1.935023622e-39
0.136502 0.272428 1.018000 1.750632362e-39
0.138144 0.272428 1.018000 1.658436733e-39
0.140061 0.272963 1.020000 1.658436733e-39
0.141706 0.272963 1.020000 1.658436733e-39
0.143632 0.273499 1.022000 1.474045473e-39
0.145422 0.273766 1.023000 1.658436733e-39
0.147072 0.273766 1.023000 1.750632362e-39
0.149304 0.274837 1.027000 1.750632362e-39
0.151254 0.275372 1.029000 1.750632362e-39
0.152913 0.275372 1.029000 1.750632362e-39
0.154723 0.275639 1.030000 1.750632362e-39
0.156384 0.275639 1.030000 1.842827992e-39
0.158352 0.276175 1.032000 1.658436733e-39
0.160327 0.276710 1.034000 1.474045473e-39
0.161995 0.276710 1.034000 1.381849843e-39
0.163979 0.277245 1.036000 1.381849843e-39
0.165810 0.277513 1.037000 1.381849843e-39
0.167482 0.277513 1.037000 1.474045473e-39
0.169155 0.277513 1.037000 1.658436733e-39
0.170827 0.277513 1.037000 1.750632362e-39
0.172832 0.278048 1.039000 1.935023622e-39
0.174508 0.278048 1.039000 1.750632362e-39
0.176184 0.278048 1.039000 1.658436733e-39
0.177859 0.278048 1.039000 1.474045473e-39
0.179881 0.278583 1.041000 1.381849843e-39
0.181560 0.278583 1.041000 1.381849843e-39
0.183238 0.278583 1.041000 1.289654213e-39
0.184917 0.278583 1.041000 1.658436733e-39
0.186955 0.279118 1.043000 1.842827992e-39
0.188637 0.279118 1.043000 1.658436733e-39
0.190319 0.279118 1.043000 1.289654213e-39
0.192001 0.279118 1.043000 1.289654213e-39
0.193683 0.279118 1.043000 1.474045473e-39
0.195366 0.279118 1.043000 1.658436733e-39
0.197237 0.279386 1.044000 1.750632362e-39
0.198920 0.279386 1.044000 1.842827992e-39
0.200412 0.279118 1.043000 1.935023622e-39
0.202094 0.279118 1.043000 2.027219252e-39
0.203972 0.279386 1.044000 1.935023622e-39
0.205655 0.279386 1.044000 1.842827992e-39
0.207339 0.279386 1.044000 1.842109126e-39
0.209423 0.279921 1.046000 2.026500386e-39
0.211110 0.279921 1.046000 2.118696016e-39
0.212797 0.279921 1.046000 2.210891646e-39
0.214894 0.280456 1.048000 2.395282905e-39
0.216585 0.280456 1.048000 2.579674165e-39
0.218275 0.280456 1.048000 2.303451613e-39
0.220385 0.280992 1.050000 1.658082204e-39
0.222078 0.280992 1.050000 1.474045473e-39
0.223772 0.280992 1.050000 1.381849843e-39
0.225895 0.281527 1.052000 1.750632362e-39
0.227591 0.281527 1.052000 1.842827992e-39
0.229288 0.281527 1.052000 1.842827992e-39
0.230985 0.281527 1.052000 1.935023622e-39
0.232681 0.281527 1.052000 1.474045473e-39
0.234378 0.281527 1.052000 1.381849843e-39
0.236075 0.281527 1.052000 1.381849843e-39
0.237997 0.281795 1.053000 1.381849843e-39
0.239696 0.281795 1.053000 1.381849843e-39
0.241394 0.281795 1.053000 1.381849843e-39
0.243092 0.281795 1.053000 1.381849843e-39
0.244790 0.281795 1.053000 1.381849843e-39
0.246489 0.281795 1.053000 1.381849843e-39
0.248658 0.282330 1.055000 1.381849843e-39
0.250360 0.282330 1.055000 1.474045473e-39
0.252061 0.282330 1.055000 1.474045473e-39
0.253763 0.282330 1.055000 1.750632362e-39
0.255464 0.282330 1.055000 1.935023622e-39
0.257166 0.282330 1.055000 2.027219252e-39
0.258867 0.282330 1.055000 1.750632362e-39
0.261063 0.282865 1.057000 1.842827992e-39
0.262768 0.282865 1.057000 1.842827992e-39
0.264472 0.282865 1.057000 1.658436733e-39
0.266177 0.282865 1.057000 1.658436733e-39
0.267882 0.282865 1.057000 1.474045473e-39
0.270097 0.283400 1.059000 1.658436733e-39
0.271805 0.283400 1.059000 1.842827992e-39
0.273513 0.283400 1.059000 1.658436733e-39
0.275740 0.283935 1.061000 1.381849843e-39
0.277452 0.283935 1.061000 1.197458583e-39
0.279163 0.283935 1.061000 1.289654213e-39
0.281139 0.284203 1.062000 1.474045473e-39
0.282851 0.284203 1.062000 1.658436733e-39
0.284564 0.284203 1.062000 1.474045473e-39
0.286277 0.284203 1.062000 1.474045473e-39
0.287990 0.284203 1.062000 1.381849843e-39
0.290248 0.284738 1.064000 1.750632362e-39
0.291964 0.284738 1.064000 1.658436733e-39
0.293680 0.284738 1.064000 1.750632362e-39
0.295396 0.284738 1.064000 1.842827992e-39
0.297112 0.284738 1.064000 1.289654213e-39
0.299390 0.285273 1.066000 1.289654213e-39
0.301109 0.285273 1.066000 1.289654213e-39
0.303397 0.285809 1.068000 1.289654213e-39
0.305119 0.285809 1.068000 1.381849843e-39
0.306842 0.285809 1.068000 1.658436733e-39
0.309142 0.286344 1.070000 1.381849843e-39
0.310868 0.286344 1.070000 1.381849843e-39
0.312593 0.286344 1.070000 1.381849843e-39
0.314907 0.286879 1.072000 1.474045473e-39
0.316635 0.286879 1.072000 1.750632362e-39
0.318364 0.286879 1.072000 1.750632362e-39
0.320690 0.287414 1.074000 1.935020820e-39
0.322423 0.287414 1.074000 2.672585858e-39
0.325060 0.288217 1.077000 2.210888843e-39
0.326797 0.288217 1.077000 2.210888843e-39
0.329144 0.288752 1.079000 2.026497583e-39
0.332111 0.289823 1.083000 2.026497583e-39
0.333858 0.289823 1.083000 2.026497583e-39
0.336224 0.290358 1.085000 2.118693213e-39
-0.147206 0.300184 1.115000 5.155035133e-39
-0.145147 0.299646 1.113000 2.946307093e-39
-0.143352 0.299646 1.113000 2.393133313e-39
-0.141048 0.298569 1.109000 1.289299685e-39
-0.139009 0.298030 1.107000 1.473690944e-39
-0.137223 0.298030 1.107000 1.474045473e-39
-0.134948 0.296953 1.103000 1.381849843e-39
-0.133170 0.296953 1.103000 1.381849843e-39
-0.130676 0.295338 1.097000 1.289654213e-39
-0.128907 0.295338 1.097000 1.289654213e-39
-0.126906 0.294800 1.095000 1.289654213e-39
-0.124682 0.293723 1.091000 1.289654213e-39
-0.122923 0.293723 1.091000 1.289654213e-39
-0.120275 0.291569 1.083000 1.381849843e-39
-0.117653 0.289415 1.075000 1.658436733e-39
-0.115919 0.289415 1.075000 2.670436267e-39
-0.113442 0.287531 1.068000 2.854827526e-39
-0.111719 0.287531 1.068000 3.130695550e-39
-0.109070 0.285108 1.059000 2.946304290e-39
-0.106449 0.282685 1.050000 2.854827526e-39
-0.104756 0.282685 1.050000 2.854827526e-39
-0.102179 0.280262 1.041000 2.854827526e-39
-0.100500 0.280262 1.041000 2.947023156e-39
-0.098157 0.278377 1.034000 2.670436267e-39
-0.095836 0.276492 1.027000 2.393849377e-39
-0.094180 0.276492 1.027000 2.301653747e-39
-0.092073 0.275146 1.022000 2.578240637e-39
-0.090424 0.275146 1.022000 2.394928377e-39
-0.088342 0.273800 1.017000 2.487124007e-39
-0.086361 0.272723 1.013000 2.487124007e-39
-0.084727 0.272723 1.013000 2.210537117e-39
-0.082847 0.271916 1.010000 1.934669094e-39
-0.081218 0.271916 1.010000 1.842473464e-39
-0.079353 0.271108 1.007000 1.842473464e-39
-0.077574 0.270570 1.005000 1.842473464e-39
-0.075953 0.270570 1.005000 1.842473464e-39
-0.074185 0.270031 1.003000 1.750277834e-39
-0.072495 0.269762 1.002000 1.842473464e-39
-0.070879 0.269762 1.002000 1.934669094e-39
-0.069263 0.269762 1.002000 1.934669094e-39
-0.067647 0.269762 1.002000 1.842473464e-39
-0.065899 0.269223 1.000000 1.935023622e-39
-0.064157 0.268685 0.998000 1.935023622e-39
-0.062548 0.268685 0.998000 1.935023622e-39
-0.060938 0.268685 0.998000 1.935023622e-39
-0.059329 0.268685 0.998000 1.750632362e-39
-0.057719 0.268685 0.998000 1.750632362e-39
-0.056109 0.268685 0.998000 1.842109126e-39
-0.054500 0.268685 0.998000 1.934304756e-39
-0.052890 0.268685 0.998000 1.934304756e-39
-0.051281 0.268685 0.998000 1.749913496e-39
-0.049671 0.268685 0.998000 1.749913496e-39
-0.048062 0.268685 0.998000 1.934304756e-39
-0.046452 0.268685 0.998000 2.026500386e-39
-0.044842 0.268685 0.998000 1.934304756e-39
-0.043233 0.268685 0.998000 1.750632362e-39
-0.041623 0.268685 0.998000 1.750632362e-39
-0.040014 0.268685 0.998000 1.474045473e-39
-0.038404 0.268685 0.998000 1.658436733e-39
-0.036795 0.268685 0.998000 1.658436733e-39
-0.035185 0.268685 0.998000 1.474045473e-39
-0.033575 0.268685 0.998000 1.474045473e-39
-0.031966 0.268685 0.998000 1.658436733e-39
-0.030326 0.268416 0.997000 1.842473464e-39
-0.028718 0.268416 0.997000 1.842473464e-39
-0.027110 0.268416 0.997000 1.750632362e-39
-0.025502 0.268416 0.997000 1.750632362e-39
-0.023846 0.267877 0.995000 1.750632362e-39
-0.022241 0.267877 0.995000 1.658436733e-39
-0.020637 0.267877 0.995000 1.750632362e-39
-0.019070 0.268416 0.997000 1.842827992e-39
-0.017462 0.268416 0.997000 1.842827992e-39
-0.015854 0.268416 0.997000 1.842827992e-39
-0.014246 0.268416 0.997000 2.027219252e-39
-0.012638 0.268416 0.997000 1.658436733e-39
-0.011030 0.268416 0.997000 1.750632362e-39
-0.009432 0.268685 0.998000 1.842827992e-39
-0.007822 0.268685 0.998000 2.118696016e-39
-0.006213 0.268685 0.998000 1.934304756e-39
-0.004603 0.268685 0.998000 1.934304756e-39
-0.002993 0.268685 0.998000 2.026500386e-39
-0.001384 0.268685 0.998000 1.842827992e-39
0.000226 0.268685 0.998000 1.750632362e-39
0.001835 0.268685 0.998000 1.289654213e-39
0.003445 0.268685 0.998000 1.474045473e-39
0.005054 0.268685 0.998000 1.381849843e-39
0.006677 0.269223 1.000000 1.474045473e-39
0.008290 0.269223 1.000000 1.474045473e-39
0.009903 0.269223 1.000000 1.750632362e-39
0.011516 0.269223 1.000000 1.750632362e-39
0.013129 0.269223 1.000000 1.750632362e-39
0.014771 0.269762 1.002000 1.750632362e-39
0.016387 0.269762 1.002000 1.842827992e-39
0.018003 0.269762 1.002000 1.935023622e-39
0.019639 0.270031 1.003000 1.842827992e-39
0.021256 0.270031 1.003000 1.750632362e-39
0.022919 0.270570 1.005000 1.750632362e-39
0.024540 0.270570 1.005000 1.750632362e-39
0.026161 0.270570 1.005000 1.750632362e-39
0.027782 0.270570 1.005000 1.935023622e-39
0.029403 0.270570 1.005000 2.119414882e-39
0.031085 0.271108 1.007000 2.303803339e-39
0.032710 0.271108 1.007000 1.750629560e-39
0.034334 0.271108 1.007000 1.381847040e-39
0.035958 0.271108 1.007000 1.381847040e-39
0.037582 0.271108 1.007000 1.381849843e-39
0.039206 0.271108 1.007000 1.381849843e-39
0.040830 0.271108 1.007000 1.474045473e-39
0.042454 0.271108 1.007000 1.474045473e-39
0.044078 0.271108 1.007000 1.658436733e-39
0.045702 0.271108 1.007000 1.658436733e-39
0.047326 0.271108 1.007000 1.474045473e-39
0.048950 0.271108 1.007000 1.658436733e-39
0.050575 0.271108 1.007000 1.474045473e-39
0.052199 0.271108 1.007000 1.474045473e-39
0.053823 0.271108 1.007000 1.658436733e-39
0.055447 0.271108 1.007000 1.658436733e-39
0.057071 0.271108 1.007000 1.750632362e-39
0.058695 0.271108 1.007000 1.474045473e-39
0.060319 0.271108 1.007000 1.381849843e-39
0.061943 0.271108 1.007000 1.381849843e-39
0.063567 0.271108 1.007000 1.750632362e-39
0.065191 0.271108 1.007000 1.842827992e-39
0.066815 0.271108 1.007000 1.750632362e-39
0.068440 0.271108 1.007000 1.658436733e-39
0.070064 0.271108 1.007000 1.658436733e-39
0.071688 0.271108 1.007000 1.658436733e-39
0.073312 0.271108 1.007000 1.750632362e-39
0.074936 0.271108 1.007000 1.658436733e-39
0.076560 0.271108 1.007000 1.842827992e-39
0.078262 0.271377 1.008000 2.027219252e-39
0.079887 0.271377 1.008000 2.119414882e-39
0.081513 0.271377 1.008000 2.396001771e-39
0.083139 0.271377 1.008000 2.210891646e-39
0.084765 0.271377 1.008000 1.842109126e-39
0.086390 0.271377 1.008000 1.381849843e-39
0.088191 0.271916 1.010000 1.381849843e-39
0.089820 0.271916 1.010000 1.474045473e-39
0.091448 0.271916 1.010000 1.658436733e-39
0.093262 0.272454 1.012000 1.750632362e-39
0.094894 0.272454 1.012000 1.658436733e-39
0.096621 0.272723 1.013000 1.474045473e-39
0.098255 0.272723 1.013000 1.474045473e-39
0.099889 0.272723 1.013000 1.474045473e-39
0.101523 0.272723 1.013000 1.474045473e-39
0.103156 0.272723 1.013000 1.474045473e-39
0.104790 0.272723 1.013000 1.474045473e-39
0.106424 0.272723 1.013000 1.658436733e-39
0.108058 0.272723 1.013000 1.658436733e-39
0.109692 0.272723 1.013000 1.658436733e-39
0.111325 0.272723 1.013000 1.658436733e-39
0.112959 0.272723 1.013000 1.750632362e-39
0.114593 0.272723 1.013000 2.027219252e-39
0.116227 0.272723 1.013000 1.658436733e-39
0.117860 0.272723 1.013000 1.474045473e-39
0.119494 0.272723 1.013000 1.381849843e-39
0.121128 0.272723 1.013000 1.289654213e-39
0.123004 0.273262 1.015000 1.197458583e-39
0.124641 0.273262 1.015000 1.381849843e-39
0.126278 0.273262 1.015000 1.381849843e-39
0.127915 0.273262 1.015000 1.381849843e-39
0.129552 0.273262 1.015000 1.474045473e-39
0.131448 0.273800 1.017000 1.750632362e-39
0.133088 0.273800 1.017000 2.303806142e-39
0.134860 0.274069 1.018000 2.027219252e-39
0.136502 0.274069 1.018000 1.750632362e-39
0.138144 0.274069 1.018000 1.750632362e-39
0.140061 0.274608 1.020000 1.658436733e-39
0.141706 0.274608 1.020000 1.474045473e-39
0.143632 0.275146 1.022000 1.474045473e-39
0.145422 0.275416 1.023000 1.658436733e-39
0.147072 0.275416 1.023000 1.567320102e-39
0.149304 0.276492 1.027000 1.567320102e-39
0.151254 0.277031 1.029000 1.567320102e-39
0.152913 0.277031 1.029000 1.567320102e-39
0.154723 0.277300 1.030000 1.842827992e-39
0.156384 0.277300 1.030000 2.027219252e-39
0.158352 0.277839 1.032000 1.750632362e-39
0.160327 0.278377 1.034000 1.474045473e-39
0.161995 0.278377 1.034000 1.474045473e-39
0.163979 0.278915 1.036000 1.474045473e-39
0.165810 0.279185 1.037000 1.381849843e-39
0.167482 0.279185 1.037000 1.381849843e-39
0.169155 0.279185 1.037000 1.474045473e-39
0.170827 0.279185 1.037000 1.750632362e-39
0.172832 0.279723 1.039000 2.026500386e-39
0.174508 0.279723 1.039000 2.118696016e-39
0.176184 0.279723 1.039000 1.935023622e-39
0.177859 0.279723 1.039000 1.750632362e-39
0.179535 0.279723 1.039000 1.381849843e-39
0.181211 0.279723 1.039000 1.381849843e-39
0.182886 0.279723 1.039000 1.289654213e-39
0.184562 0.279723 1.039000 1.474045473e-39
0.186238 0.279723 1.039000 1.750632362e-39
0.188275 0.280262 1.041000 1.658436733e-39
0.189954 0.280262 1.041000 1.289654213e-39
0.191633 0.280262 1.041000 1.289654213e-39
0.193312 0.280262 1.041000 1.381849843e-39
0.194991 0.280262 1.041000 1.474045473e-39
0.196670 0.280262 1.041000 1.750632362e-39
0.198349 0.280262 1.041000 1.842827992e-39
0.200028 0.280262 1.041000 1.935023622e-39
0.201707 0.280262 1.041000 2.027219252e-39
0.203386 0.280262 1.041000 2.119414882e-39
0.205458 0.280800 1.043000 2.027219252e-39
0.207141 0.280800 1.043000 1.934304756e-39
0.208823 0.280800 1.043000 2.026500386e-39
0.210707 0.281069 1.044000 2.118696016e-39
0.212390 0.281069 1.044000 2.210891646e-39
0.214074 0.281069 1.044000 2.210891646e-39
0.215758 0.281069 1.044000 2.487478535e-39
0.217858 0.281608 1.046000 2.119060353e-39
0.219545 0.281608 1.046000 1.658082204e-39
0.221232 0.281608 1.046000 1.381495314e-39
0.222919 0.281608 1.046000 1.381495314e-39
0.224606 0.281608 1.046000 1.935023622e-39
0.226293 0.281608 1.046000 1.935023622e-39
0.228416 0.282146 1.048000 1.935023622e-39
0.230106 0.282146 1.048000 1.842827992e-39
0.232239 0.282685 1.050000 1.474045473e-39
0.233932 0.282685 1.050000 1.381849843e-39
0.235626 0.282685 1.050000 1.381849843e-39
0.237771 0.283223 1.052000 1.381849843e-39
0.239468 0.283223 1.052000 1.381849843e-39
0.241165 0.283223 1.052000 1.381849843e-39
0.242861 0.283223 1.052000 1.381849843e-39
0.244558 0.283223 1.052000 1.381849843e-39
0.246255 0.283223 1.052000 1.381849843e-39
0.248187 0.283492 1.053000 1.381849843e-39
0.249885 0.283492 1.053000 1.381849843e-39
0.251584 0.283492 1.053000 1.381849843e-39
0.253282 0.283492 1.053000 1.474045473e-39
0.254980 0.283492 1.053000 1.750632362e-39
0.257166 0.284031 1.055000 1.842827992e-39
0.258867 0.284031 1.055000 1.842827992e-39
0.260569 0.284031 1.055000 1.842827992e-39
0.262270 0.284031 1.055000 1.842827992e-39
0.263972 0.284031 1.055000 1.474045473e-39
0.266177 0.284569 1.057000 1.474045473e-39
0.267882 0.284569 1.057000 1.474045473e-39
0.269587 0.284569 1.057000 1.474045473e-39
0.271291 0.284569 1.057000 1.750632362e-39
0.272996 0.284569 1.057000 1.658436733e-39
0.275221 0.285108 1.059000 1.381849843e-39
0.276929 0.285108 1.059000 1.289654213e-39
0.278636 0.285108 1.059000 1.289654213e-39
0.280874 0.285646 1.061000 1.381849843e-39
0.282585 0.285646 1.061000 1.474045473e-39
0.284296 0.285646 1.061000 1.474045473e-39
0.286007 0.285646 1.061000 1.474045473e-39
0.287990 0.285915 1.062000 1.474045473e-39
0.289703 0.285915 1.062000 1.842827992e-39
0.291415 0.285915 1.062000 1.750632362e-39
0.293128 0.285915 1.062000 1.842827992e-39
0.295396 0.286454 1.064000 1.935023622e-39
0.297112 0.286454 1.064000 1.381849843e-39
0.298828 0.286454 1.064000 1.381849843e-39
0.300544 0.286454 1.064000 1.289654213e-39
0.302828 0.286992 1.066000 1.289654213e-39
0.305119 0.287531 1.068000 1.381849843e-39
0.306842 0.287531 1.068000 1.381849843e-39
0.308564 0.287531 1.068000 1.381849843e-39
0.310287 0.287531 1.068000 1.381849843e-39
0.312593 0.288069 1.070000 1.381849843e-39
0.314319 0.288069 1.070000 1.474045473e-39
0.316045 0.288069 1.070000 1.658436733e-39
0.318364 0.288608 1.072000 1.474045473e-39
0.320093 0.288608 1.072000 1.659515732e-39
0.322423 0.289146 1.074000 2.212689512e-39
0.325060 0.289954 1.077000 2.118693213e-39
0.326797 0.289954 1.077000 2.118693213e-39
0.329144 0.290492 1.079000 1.934301953e-39
0.332111 0.291569 1.083000 2.026497583e-39
0.333858 0.291569 1.083000 2.026497583e-39
0.336224 0.292107 1.085000 2.026497583e-39
0.338597 0.292646 1.087000 2.118693213e-39
-0.147206 0.301982 1.115000 6.722360841e-39
-0.145147 0.301440 1.113000 2.669720203e-39
-0.143352 0.301440 1.113000 2.669720203e-39
-0.141048 0.300357 1.109000 1.472972078e-39
-0.139009 0.299815 1.107000 1.565167708e-39
-0.137223 0.299815 1.107000 1.658436733e-39
-0.134948 0.298732 1.103000 1.474045473e-39
-0.133170 0.298732 1.103000 1.381849843e-39
-0.130676 0.297107 1.097000 1.289654213e-39
-0.128202 0.295482 1.091000 1.289654213e-39
-0.126442 0.295482 1.091000 1.289654213e-39
-0.123768 0.293315 1.083000 1.289654213e-39
-0.122022 0.293315 1.083000 1.289654213e-39
-0.119609 0.291690 1.077000 1.289654213e-39
-0.116887 0.289253 1.068000 1.474045473e-39
-0.115164 0.289253 1.068000 2.487124007e-39
-0.112486 0.286815 1.059000 2.763710896e-39
-0.110778 0.286815 1.059000 3.223610046e-39
-0.108143 0.284378 1.050000 2.854827526e-39
-0.105537 0.281940 1.041000 2.854827526e-39
-0.103858 0.281940 1.041000 2.762631896e-39
-0.101492 0.280044 1.034000 2.762631896e-39
-0.099824 0.280044 1.034000 2.854827526e-39
-0.097492 0.278148 1.027000 2.670436267e-39
-0.095369 0.276794 1.022000 2.393849377e-39
-0.093721 0.276794 1.022000 2.301653747e-39
-0.091622 0.275440 1.017000 2.578240637e-39
-0.089982 0.275440 1.017000 2.394928377e-39
-0.087994 0.274357 1.013000 2.487124007e-39
-0.086105 0.273544 1.010000 2.487124007e-39
-0.084476 0.273544 1.010000 2.118341487e-39
-0.082683 0.273002 1.008000 1.842473464e-39
-0.081057 0.273002 1.008000 1.842473464e-39
-0.079195 0.272190 1.005000 1.750277834e-39
-0.077420 0.271648 1.003000 1.842473464e-39
-0.075802 0.271648 1.003000 1.750277834e-39
-0.074111 0.271377 1.002000 1.750277834e-39
-0.072350 0.270836 1.000000 1.750277834e-39
-0.070737 0.270836 1.000000 1.842473464e-39
-0.069124 0.270836 1.000000 1.842473464e-39
-0.067512 0.270836 1.000000 1.750277834e-39
-0.065767 0.270294 0.998000 1.934669094e-39
-0.064093 0.270023 0.997000 1.934669094e-39
-0.062485 0.270023 0.997000 1.842827992e-39
-0.060877 0.270023 0.997000 1.750632362e-39
-0.059269 0.270023 0.997000 1.658436733e-39
-0.057661 0.270023 0.997000 1.842827992e-39
-0.056053 0.270023 0.997000 2.027219252e-39
-0.054445 0.270023 0.997000 2.027219252e-39
-0.052837 0.270023 0.997000 1.842827992e-39
-0.051229 0.270023 0.997000 1.658436733e-39
-0.049621 0.270023 0.997000 1.750632362e-39
-0.048062 0.270294 0.998000 1.842827992e-39
-0.046452 0.270294 0.998000 2.026500386e-39
-0.044797 0.270023 0.997000 1.934304756e-39
-0.043190 0.270023 0.997000 1.750632362e-39
-0.041582 0.270023 0.997000 1.474045473e-39
-0.039974 0.270023 0.997000 1.381849843e-39
-0.038366 0.270023 0.997000 1.658436733e-39
-0.036758 0.270023 0.997000 1.750632362e-39
-0.035150 0.270023 0.997000 1.474045473e-39
-0.033542 0.270023 0.997000 1.474045473e-39
-0.031870 0.269482 0.995000 1.658436733e-39
-0.030265 0.269482 0.995000 1.750277834e-39
-0.028660 0.269482 0.995000 1.750277834e-39
-0.027056 0.269482 0.995000 1.658436733e-39
-0.025451 0.269482 0.995000 1.658436733e-39
-0.023846 0.269482 0.995000 1.842827992e-39
-0.022241 0.269482 0.995000 1.935023622e-39
-0.020637 0.269482 0.995000 1.842827992e-39
-0.019032 0.269482 0.995000 1.842827992e-39
-0.017427 0.269482 0.995000 1.750632362e-39
-0.015822 0.269482 0.995000 1.750632362e-39
-0.014218 0.269482 0.995000 1.935023622e-39
-0.012613 0.269482 0.995000 1.658436733e-39
-0.011030 0.270023 0.997000 1.750632362e-39
-0.009422 0.270023 0.997000 2.027219252e-39
-0.007814 0.270023 0.997000 2.395282905e-39
-0.006206 0.270023 0.997000 2.026500386e-39
-0.004598 0.270023 0.997000 1.842109126e-39
-0.002990 0.270023 0.997000 1.934304756e-39
-0.001382 0.270023 0.997000 1.842827992e-39
0.000225 0.270023 0.997000 1.658436733e-39
0.001835 0.270294 0.998000 1.289654213e-39
0.003445 0.270294 0.998000 1.474045473e-39
0.005054 0.270294 0.998000 1.474045473e-39
0.006664 0.270294 0.998000 1.474045473e-39
0.008274 0.270294 0.998000 1.381849843e-39
0.009883 0.270294 0.998000 1.658436733e-39
0.011493 0.270294 0.998000 1.750632362e-39
0.013129 0.270836 1.000000 1.658436733e-39
0.014771 0.271377 1.002000 2.027216449e-39
0.016387 0.271377 1.002000 2.395998969e-39
0.018003 0.271377 1.002000 1.935020820e-39
0.019639 0.271648 1.003000 1.935020820e-39
0.021256 0.271648 1.003000 1.750629560e-39
0.022919 0.272190 1.005000 1.658433930e-39
0.024540 0.272190 1.005000 1.658436733e-39
0.026161 0.272190 1.005000 1.750632362e-39
0.027782 0.272190 1.005000 1.935023622e-39
0.029403 0.272190 1.005000 2.027219252e-39
0.031085 0.272732 1.007000 2.119414882e-39
0.032710 0.272732 1.007000 1.750632362e-39
0.034334 0.272732 1.007000 1.381849843e-39
0.035958 0.272732 1.007000 1.381849843e-39
0.037582 0.272732 1.007000 1.381849843e-39
0.039206 0.272732 1.007000 1.474045473e-39
0.040830 0.272732 1.007000 1.474045473e-39
0.042454 0.272732 1.007000 1.474045473e-39
0.044078 0.272732 1.007000 1.750632362e-39
0.045702 0.272732 1.007000 1.658436733e-39
0.047326 0.272732 1.007000 1.658436733e-39
0.048950 0.272732 1.007000 1.474045473e-39
0.050575 0.272732 1.007000 1.474045473e-39
0.052199 0.272732 1.007000 1.474045473e-39
0.053823 0.272732 1.007000 1.474045473e-39
0.055447 0.272732 1.007000 1.750632362e-39
0.057071 0.272732 1.007000 2.026500386e-39
0.058695 0.272732 1.007000 1.842109126e-39
0.060319 0.272732 1.007000 1.381849843e-39
0.061943 0.272732 1.007000 1.381849843e-39
0.063567 0.272732 1.007000 1.750632362e-39
0.065191 0.272732 1.007000 1.842827992e-39
0.066815 0.272732 1.007000 1.750632362e-39
0.068440 0.272732 1.007000 1.658436733e-39
0.070064 0.272732 1.007000 1.658436733e-39
0.071688 0.272732 1.007000 1.658436733e-39
0.073312 0.272732 1.007000 1.658436733e-39
0.074936 0.272732 1.007000 1.750632362e-39
0.076560 0.272732 1.007000 2.119414882e-39
0.078262 0.273002 1.008000 2.119414882e-39
0.079887 0.273002 1.008000 2.210891646e-39
0.081513 0.273002 1.008000 2.487478535e-39
0.083139 0.273002 1.008000 2.118696016e-39
0.084765 0.273002 1.008000 1.842109126e-39
0.086390 0.273002 1.008000 1.473326607e-39
0.088191 0.273544 1.010000 1.473326607e-39
0.089820 0.273544 1.010000 1.474045473e-39
0.091448 0.273544 1.010000 1.658436733e-39
0.093262 0.274086 1.012000 1.842827992e-39
0.094894 0.274086 1.012000 1.658436733e-39
0.096526 0.274086 1.012000 1.750632362e-39
0.098158 0.274086 1.012000 1.658436733e-39
0.099790 0.274086 1.012000 1.474045473e-39
0.101423 0.274086 1.012000 1.381849843e-39
0.103055 0.274086 1.012000 1.474045473e-39
0.104687 0.274086 1.012000 1.474045473e-39
0.106319 0.274086 1.012000 1.658436733e-39
0.107951 0.274086 1.012000 1.658436733e-39
0.109583 0.274086 1.012000 1.658436733e-39
0.111215 0.274086 1.012000 1.750632362e-39
0.112848 0.274086 1.012000 1.842109126e-39
0.114480 0.274086 1.012000 2.026500386e-39
0.116112 0.274086 1.012000 1.474045473e-39
0.117860 0.274357 1.013000 1.381849843e-39
0.119494 0.274357 1.013000 1.289654213e-39
0.121128 0.274357 1.013000 1.289654213e-39
0.122762 0.274357 1.013000 1.197458583e-39
0.124395 0.274357 1.013000 1.381849843e-39
0.126029 0.274357 1.013000 1.381849843e-39
0.127663 0.274357 1.013000 1.381849843e-39
0.129552 0.274898 1.015000 1.381849843e-39
0.131189 0.274898 1.015000 1.658436733e-39
0.132826 0.274898 1.015000 2.119414882e-39
0.134728 0.275440 1.017000 2.027219252e-39
0.136502 0.275711 1.018000 1.842827992e-39
0.138144 0.275711 1.018000 1.842827992e-39
0.140061 0.276252 1.020000 1.750632362e-39
0.141706 0.276252 1.020000 1.474045473e-39
0.143632 0.276794 1.022000 1.475124473e-39
0.145422 0.277065 1.023000 1.567320102e-39
0.147072 0.277065 1.023000 1.567320102e-39
0.149013 0.277607 1.025000 1.659515732e-39
0.150960 0.278148 1.027000 1.475124473e-39
0.152616 0.278148 1.027000 1.567320102e-39
0.154573 0.278690 1.029000 1.751711362e-39
0.156233 0.278690 1.029000 1.843906992e-39
0.158046 0.278961 1.030000 1.750632362e-39
0.160017 0.279502 1.032000 1.658436733e-39
0.161681 0.279502 1.032000 1.565522237e-39
0.163662 0.280044 1.034000 1.565522237e-39
0.165650 0.280586 1.036000 1.381849843e-39
0.167321 0.280586 1.036000 1.381849843e-39
0.168991 0.280586 1.036000 1.474045473e-39
0.170662 0.280586 1.036000 1.750632362e-39
0.172499 0.280857 1.037000 1.935023622e-39
0.174172 0.280857 1.037000 2.303806142e-39
0.175844 0.280857 1.037000 2.303806142e-39
0.177517 0.280857 1.037000 1.842827992e-39
0.179189 0.280857 1.037000 1.565522237e-39
0.180862 0.280857 1.037000 1.381130977e-39
0.182534 0.280857 1.037000 1.289654213e-39
0.184207 0.280857 1.037000 1.381849843e-39
0.185879 0.280857 1.037000 1.658436733e-39
0.187552 0.280857 1.037000 1.658436733e-39
0.189224 0.280857 1.037000 1.474045473e-39
0.190897 0.280857 1.037000 1.289654213e-39
0.192569 0.280857 1.037000 1.289654213e-39
0.194616 0.281398 1.039000 1.474045473e-39
0.196292 0.281398 1.039000 1.658436733e-39
0.197968 0.281398 1.039000 1.658436733e-39
0.199643 0.281398 1.039000 1.750632362e-39
0.201319 0.281398 1.039000 1.935023622e-39
0.202995 0.281398 1.039000 2.119414882e-39
0.204671 0.281398 1.039000 2.119414882e-39
0.206346 0.281398 1.039000 1.934304756e-39
0.208422 0.281940 1.041000 2.026500386e-39
0.210101 0.281940 1.041000 2.118696016e-39
0.211780 0.281940 1.041000 2.210891646e-39
0.213869 0.282482 1.043000 2.210891646e-39
0.215551 0.282482 1.043000 2.395282905e-39
0.217234 0.282482 1.043000 2.026864723e-39
0.219126 0.282752 1.044000 1.658082204e-39
0.220809 0.282752 1.044000 1.381495314e-39
0.222493 0.282752 1.044000 1.381495314e-39
0.224177 0.282752 1.044000 1.842827992e-39
0.225861 0.282752 1.044000 1.935023622e-39
0.227544 0.282752 1.044000 2.027219252e-39
0.230106 0.283836 1.048000 1.842827992e-39
0.232239 0.284378 1.050000 1.474045473e-39
0.233932 0.284378 1.050000 1.381849843e-39
0.235626 0.284378 1.050000 1.381849843e-39
0.237771 0.284919 1.052000 1.381849843e-39
0.239468 0.284919 1.052000 1.381849843e-39
0.241165 0.284919 1.052000 1.381849843e-39
0.242861 0.284919 1.052000 1.381849843e-39
0.244558 0.284919 1.052000 1.381849843e-39
0.246255 0.284919 1.052000 1.381849843e-39
0.248187 0.285190 1.053000 1.381849843e-39
0.249885 0.285190 1.053000 1.381849843e-39
0.251584 0.285190 1.053000 1.381849843e-39
0.253282 0.285190 1.053000 1.381849843e-39
0.254980 0.285190 1.053000 1.750632362e-39
0.257166 0.285732 1.055000 1.842827992e-39
0.258867 0.285732 1.055000 1.935023622e-39
0.260569 0.285732 1.055000 1.842827992e-39
0.262270 0.285732 1.055000 1.750632362e-39
0.263972 0.285732 1.055000 1.474045473e-39
0.266177 0.286273 1.057000 1.381849843e-39
0.267882 0.286273 1.057000 1.381849843e-39
0.269587 0.286273 1.057000 1.381849843e-39
0.271291 0.286273 1.057000 1.658082204e-39
0.272996 0.286273 1.057000 1.658082204e-39
0.275221 0.286815 1.059000 1.381849843e-39
0.276929 0.286815 1.059000 1.381849843e-39
0.278636 0.286815 1.059000 1.474045473e-39
0.280874 0.287357 1.061000 1.474045473e-39
0.282585 0.287357 1.061000 1.474045473e-39
0.284296 0.287357 1.061000 1.474045473e-39
0.286007 0.287357 1.061000 1.474045473e-39
0.287990 0.287628 1.062000 1.474045473e-39
0.289703 0.287628 1.062000 1.842827992e-39
0.291415 0.287628 1.062000 1.750632362e-39
0.293128 0.287628 1.062000 1.934304756e-39
0.295396 0.288169 1.064000 2.026500386e-39
0.297112 0.288169 1.064000 1.474045473e-39
0.298828 0.288169 1.064000 1.289654213e-39
0.300544 0.288169 1.064000 1.381849843e-39
0.302828 0.288711 1.066000 1.381849843e-39
0.305119 0.289253 1.068000 1.381849843e-39
0.306842 0.289253 1.068000 1.381849843e-39
0.308564 0.289253 1.068000 1.289654213e-39
0.310287 0.289253 1.068000 1.381849843e-39
0.312593 0.289794 1.070000 1.381849843e-39
0.314319 0.289794 1.070000 1.381849843e-39
0.316045 0.289794 1.070000 1.658436733e-39
0.318364 0.290336 1.072000 1.474045473e-39
0.320690 0.290878 1.074000 1.659515732e-39
0.322423 0.290878 1.074000 1.936102622e-39
0.324457 0.291148 1.075000 2.026500386e-39
0.326190 0.291148 1.075000 2.118696016e-39
0.329144 0.292232 1.079000 1.935020820e-39
0.331498 0.292773 1.081000 1.842825190e-39
0.333241 0.292773 1.081000 1.934301953e-39
0.335604 0.293315 1.083000 1.934301953e-39
0.338597 0.294398 1.087000 2.026497583e-39
-0.147206 0.303780 1.115000 9.579705099e-39
-0.145147 0.303235 1.113000 2.853391195e-39
-0.143352 0.303235 1.113000 2.853391195e-39
-0.141048 0.302145 1.109000 1.565167708e-39
-0.138757 0.301055 1.105000 1.472972078e-39
-0.136975 0.301055 1.105000 1.658436733e-39
-0.134704 0.299965 1.101000 1.474045473e-39
-0.132928 0.299965 1.101000 1.381849843e-39
-0.130199 0.297786 1.093000 1.381849843e-39
-0.127732 0.296151 1.087000 1.289654213e-39
-0.125978 0.296151 1.087000 1.289654213e-39
-0.123083 0.293427 1.077000 1.289654213e-39
-0.121346 0.293427 1.077000 1.289654213e-39
-0.118831 0.291519 1.070000 1.289654213e-39
-0.116120 0.289067 1.061000 1.474045473e-39
-0.114409 0.289067 1.061000 2.394928377e-39
-0.111530 0.286070 1.050000 2.763710896e-39
-0.109836 0.286070 1.050000 3.223610046e-39
-0.107422 0.284163 1.043000 2.854827526e-39
-0.104827 0.281711 1.034000 2.762631896e-39
-0.103160 0.281711 1.034000 2.762631896e-39
-0.100805 0.279804 1.027000 2.670436267e-39
-0.099149 0.279804 1.027000 2.762631896e-39
-0.097018 0.278442 1.022000 2.670436267e-39
-0.094903 0.277080 1.017000 2.393849377e-39
-0.093262 0.277080 1.017000 2.210537117e-39
-0.091262 0.275990 1.013000 2.210537117e-39
-0.089628 0.275990 1.013000 2.210537117e-39
-0.087734 0.275173 1.010000 2.487124007e-39
-0.085934 0.274628 1.008000 2.579319637e-39
-0.084309 0.274628 1.008000 2.118341487e-39
-0.082601 0.274355 1.007000 1.934669094e-39
-0.080977 0.274355 1.007000 1.842473464e-39
-0.079038 0.273265 1.003000 1.750277834e-39
-0.077343 0.272993 1.002000 1.842473464e-39
-0.075727 0.272993 1.002000 1.842473464e-39
-0.073963 0.272448 1.000000 1.750277834e-39
-0.072205 0.271903 0.998000 1.750277834e-39
-0.070596 0.271903 0.998000 1.842473464e-39
-0.068986 0.271903 0.998000 1.842473464e-39
-0.067512 0.272448 1.000000 1.934669094e-39
-0.065767 0.271903 0.998000 2.026864723e-39
-0.064093 0.271631 0.997000 1.934669094e-39
-0.062485 0.271631 0.997000 1.842827992e-39
-0.060877 0.271631 0.997000 1.750632362e-39
-0.059269 0.271631 0.997000 1.658436733e-39
-0.057661 0.271631 0.997000 1.750632362e-39
-0.056053 0.271631 0.997000 2.119414882e-39
-0.054445 0.271631 0.997000 2.027219252e-39
-0.052837 0.271631 0.997000 1.750632362e-39
-0.051229 0.271631 0.997000 1.658436733e-39
-0.049621 0.271631 0.997000 1.750632362e-39
-0.048062 0.271903 0.998000 1.842827992e-39
-0.046452 0.271903 0.998000 1.935023622e-39
-0.044797 0.271631 0.997000 1.935023622e-39
-0.043190 0.271631 0.997000 1.658436733e-39
-0.041582 0.271631 0.997000 1.474045473e-39
-0.039974 0.271631 0.997000 1.381849843e-39
-0.038366 0.271631 0.997000 1.658436733e-39
-0.036758 0.271631 0.997000 1.842827992e-39
-0.035150 0.271631 0.997000 1.750632362e-39
-0.033542 0.271631 0.997000 1.474045473e-39
-0.031870 0.271086 0.995000 1.474045473e-39
-0.030265 0.271086 0.995000 1.658436733e-39
-0.028660 0.271086 0.995000 1.658436733e-39
-0.027056 0.271086 0.995000 1.658436733e-39
-0.025451 0.271086 0.995000 1.658436733e-39
-0.023846 0.271086 0.995000 1.842827992e-39
-0.022241 0.271086 0.995000 2.027219252e-39
-0.020637 0.271086 0.995000 1.935023622e-39
-0.019032 0.271086 0.995000 1.842827992e-39
-0.017427 0.271086 0.995000 1.750632362e-39
-0.015822 0.271086 0.995000 1.750632362e-39
-0.014218 0.271086 0.995000 2.027219252e-39
-0.012613 0.271086 0.995000 1.935023622e-39
-0.011030 0.271631 0.997000 1.934304756e-39
-0.009422 0.271631 0.997000 2.118696016e-39
-0.007814 0.271631 0.997000 2.487478535e-39
-0.006206 0.271631 0.997000 2.026500386e-39
-0.004598 0.271631 0.997000 1.841754598e-39
-0.002990 0.271631 0.997000 1.933950227e-39
-0.001382 0.271631 0.997000 1.750632362e-39
0.000225 0.271631 0.997000 1.658436733e-39
0.001835 0.271903 0.998000 1.381849843e-39
0.003445 0.271903 0.998000 1.474045473e-39
0.005054 0.271903 0.998000 1.658436733e-39
0.006664 0.271903 0.998000 1.750632362e-39
0.008274 0.271903 0.998000 1.381849843e-39
0.009883 0.271903 0.998000 1.658436733e-39
0.011493 0.271903 0.998000 1.750632362e-39
0.013102 0.271903 0.998000 1.658436733e-39
0.014741 0.272448 1.000000 2.027216449e-39
0.016354 0.272448 1.000000 2.119412079e-39
0.017967 0.272448 1.000000 1.935020820e-39
0.019619 0.272993 1.002000 1.935020820e-39
0.021235 0.272993 1.002000 1.658433930e-39
0.022851 0.272993 1.002000 1.658433930e-39
0.024491 0.273265 1.003000 1.658433930e-39
0.026109 0.273265 1.003000 1.658433930e-39
0.027782 0.273810 1.005000 1.935023622e-39
0.029403 0.273810 1.005000 1.935023622e-39
0.031024 0.273810 1.005000 2.026500386e-39
0.032645 0.273810 1.005000 1.565522237e-39
0.034265 0.273810 1.005000 1.381849843e-39
0.035886 0.273810 1.005000 1.381849843e-39
0.037507 0.273810 1.005000 1.381849843e-39
0.039128 0.273810 1.005000 1.474045473e-39
0.040749 0.273810 1.005000 1.658436733e-39
0.042370 0.273810 1.005000 1.474045473e-39
0.043991 0.273810 1.005000 1.658436733e-39
0.045521 0.273265 1.003000 1.474045473e-39
0.047138 0.273265 1.003000 1.474045473e-39
0.048853 0.273810 1.005000 1.474045473e-39
0.050474 0.273810 1.005000 1.474045473e-39
0.052095 0.273810 1.005000 1.474045473e-39
0.053716 0.273810 1.005000 1.474045473e-39
0.055337 0.273810 1.005000 1.750632362e-39
0.056958 0.273810 1.005000 2.118696016e-39
0.058578 0.273810 1.005000 1.934304756e-39
0.060199 0.273810 1.005000 1.381849843e-39
0.061820 0.273810 1.005000 1.381849843e-39
0.063441 0.273810 1.005000 1.658436733e-39
0.065062 0.273810 1.005000 1.750632362e-39
0.066683 0.273810 1.005000 1.935023622e-39
0.068304 0.273810 1.005000 1.842827992e-39
0.070064 0.274355 1.007000 1.750632362e-39
0.071688 0.274355 1.007000 1.750632362e-39
0.073312 0.274355 1.007000 1.750632362e-39
0.074936 0.274355 1.007000 1.842827992e-39
0.076560 0.274355 1.007000 2.303806142e-39
0.078184 0.274355 1.007000 2.303806142e-39
0.079808 0.274355 1.007000 2.395282905e-39
0.081432 0.274355 1.007000 2.210891646e-39
0.083056 0.274355 1.007000 2.026500386e-39
0.084680 0.274355 1.007000 1.842109126e-39
0.086390 0.274628 1.008000 1.565522237e-39
0.088191 0.275173 1.010000 1.473326607e-39
0.089820 0.275173 1.010000 1.749913496e-39
0.091448 0.275173 1.010000 1.749913496e-39
0.093077 0.275173 1.010000 1.842827992e-39
0.094706 0.275173 1.010000 1.750632362e-39
0.096335 0.275173 1.010000 1.842827992e-39
0.097964 0.275173 1.010000 1.658436733e-39
0.099593 0.275173 1.010000 1.474045473e-39
0.101222 0.275173 1.010000 1.381849843e-39
0.102851 0.275173 1.010000 1.474045473e-39
0.104480 0.275173 1.010000 1.474045473e-39
0.106109 0.275173 1.010000 1.474045473e-39
0.107738 0.275173 1.010000 1.658436733e-39
0.109367 0.275173 1.010000 1.658436733e-39
0.110996 0.275173 1.010000 1.750632362e-39
0.112848 0.275717 1.012000 1.842109126e-39
0.114480 0.275717 1.012000 1.842109126e-39
0.116112 0.275717 1.012000 1.381849843e-39
0.117744 0.275717 1.012000 1.381849843e-39
0.119376 0.275717 1.012000 1.289654213e-39
0.121008 0.275717 1.012000 1.289654213e-39
0.122641 0.275717 1.012000 1.289654213e-39
0.124273 0.275717 1.012000 1.289654213e-39
0.126029 0.275990 1.013000 1.381849843e-39
0.127663 0.275990 1.013000 1.289654213e-39
0.129297 0.275990 1.013000 1.381849843e-39
0.130931 0.275990 1.013000 1.474045473e-39
0.132564 0.275990 1.013000 1.842827992e-39
0.134463 0.276535 1.015000 1.935023622e-39
0.136368 0.277080 1.017000 1.750632362e-39
0.138008 0.277080 1.017000 1.842827992e-39
0.139786 0.277352 1.018000 1.842473464e-39
0.141428 0.277352 1.018000 1.658082204e-39
0.143070 0.277352 1.018000 1.659161204e-39
0.145422 0.278714 1.023000 1.566965574e-39
0.147072 0.278714 1.023000 1.566965574e-39
0.149013 0.279259 1.025000 1.659161204e-39
0.150960 0.279804 1.027000 1.474769944e-39
0.152616 0.279804 1.027000 1.566965574e-39
0.154573 0.280349 1.029000 1.659515732e-39
0.156233 0.280349 1.029000 1.751711362e-39
0.158046 0.280621 1.030000 1.750632362e-39
0.160017 0.281166 1.032000 1.474045473e-39
0.161681 0.281166 1.032000 1.474045473e-39
0.163662 0.281711 1.034000 1.474045473e-39
0.165650 0.282256 1.036000 1.381849843e-39
0.167321 0.282256 1.036000 1.381849843e-39
0.168991 0.282256 1.036000 1.474045473e-39
0.170662 0.282256 1.036000 1.658436733e-39
0.172499 0.282529 1.037000 1.935023622e-39
0.174172 0.282529 1.037000 2.303806142e-39
0.175844 0.282529 1.037000 2.303806142e-39
0.177517 0.282529 1.037000 1.935023622e-39
0.179189 0.282529 1.037000 1.565522237e-39
0.180862 0.282529 1.037000 1.473326607e-39
0.182534 0.282529 1.037000 1.473326607e-39
0.184207 0.282529 1.037000 1.473326607e-39
0.185879 0.282529 1.037000 1.658436733e-39
0.187552 0.282529 1.037000 1.750632362e-39
0.189224 0.282529 1.037000 1.658436733e-39
0.190897 0.282529 1.037000 1.289654213e-39
0.192569 0.282529 1.037000 1.289654213e-39
0.194616 0.283074 1.039000 1.381849843e-39
0.196292 0.283074 1.039000 1.381849843e-39
0.197968 0.283074 1.039000 1.474045473e-39
0.199643 0.283074 1.039000 1.474045473e-39
0.201319 0.283074 1.039000 1.842827992e-39
0.202995 0.283074 1.039000 2.119414882e-39
0.204671 0.283074 1.039000 2.119414882e-39
0.206346 0.283074 1.039000 2.026500386e-39
0.208422 0.283618 1.041000 1.934304756e-39
0.210101 0.283618 1.041000 2.026500386e-39
0.211780 0.283618 1.041000 2.118696016e-39
0.213869 0.284163 1.043000 2.210891646e-39
0.215551 0.284163 1.043000 2.395282905e-39
0.217234 0.284163 1.043000 1.934669094e-39
0.219126 0.284436 1.044000 1.658082204e-39
0.220809 0.284436 1.044000 1.381495314e-39
0.222493 0.284436 1.044000 1.289299685e-39
0.224177 0.284436 1.044000 1.750277834e-39
0.225861 0.284436 1.044000 1.934669094e-39
0.227980 0.284981 1.046000 2.027219252e-39
0.229667 0.284981 1.046000 1.750632362e-39
0.231797 0.285526 1.048000 1.474045473e-39
0.233487 0.285526 1.048000 1.381849843e-39
0.235177 0.285526 1.048000 1.565522237e-39
0.236867 0.285526 1.048000 1.749913496e-39
0.238557 0.285526 1.048000 1.381849843e-39
0.240706 0.286070 1.050000 1.381849843e-39
0.242400 0.286070 1.050000 1.381849843e-39
0.244093 0.286070 1.050000 1.381849843e-39
0.245787 0.286070 1.050000 1.474045473e-39
0.247951 0.286615 1.052000 1.381849843e-39
0.249648 0.286615 1.052000 1.381849843e-39
0.251345 0.286615 1.052000 1.289654213e-39
0.253041 0.286615 1.052000 1.381849843e-39
0.254980 0.286888 1.053000 1.658436733e-39
0.256678 0.286888 1.053000 1.750632362e-39
0.258377 0.286888 1.053000 1.935023622e-39
0.260075 0.286888 1.053000 1.935023622e-39
0.261773 0.286888 1.053000 1.750632362e-39
0.263972 0.287433 1.055000 1.474045473e-39
0.265673 0.287433 1.055000 1.381849843e-39
0.267375 0.287433 1.055000 1.381849843e-39
0.269077 0.287433 1.055000 1.381849843e-39
0.271291 0.287978 1.057000 1.474045473e-39
0.272996 0.287978 1.057000 1.474045473e-39
0.274701 0.287978 1.057000 1.474045473e-39
0.276406 0.287978 1.057000 1.381849843e-39
0.278110 0.287978 1.057000 1.658436733e-39
0.280344 0.288522 1.059000 1.474045473e-39
0.282052 0.288522 1.059000 1.381849843e-39
0.283760 0.288522 1.059000 1.474045473e-39
0.285468 0.288522 1.059000 1.474045473e-39
0.287719 0.289067 1.061000 1.474045473e-39
0.289703 0.289340 1.062000 1.842827992e-39
0.291415 0.289340 1.062000 1.750632362e-39
0.293128 0.289340 1.062000 1.842109126e-39
0.294841 0.289340 1.062000 1.934304756e-39
0.296554 0.289340 1.062000 1.474045473e-39
0.298828 0.289885 1.064000 1.289654213e-39
0.300544 0.289885 1.064000 1.381849843e-39
0.302828 0.290430 1.066000 1.289654213e-39
0.304548 0.290430 1.066000 1.381849843e-39
0.306267 0.290430 1.066000 1.289654213e-39
0.307986 0.290430 1.066000 1.197458583e-39
0.309705 0.290430 1.066000 1.197458583e-39
0.312009 0.290975 1.068000 1.197458583e-39
0.314319 0.291519 1.070000 1.289654213e-39
0.316045 0.291519 1.070000 1.474045473e-39
0.317770 0.291519 1.070000 1.658436733e-39
0.320093 0.292064 1.072000 1.659515732e-39
0.321822 0.292064 1.072000 1.936102622e-39
0.324155 0.292609 1.074000 1.935023622e-39
0.325887 0.292609 1.074000 1.935023622e-39
0.328534 0.293427 1.077000 1.842825190e-39
0.331498 0.294516 1.081000 1.842825190e-39
0.333241 0.294516 1.081000 1.842106324e-39
0.335604 0.295061 1.083000 1.934301953e-39
0.337974 0.295606 1.085000 2.026497583e-39
-0.145147 0.305029 1.113000 2.485326141e-39
-0.143352 0.305029 1.113000 2.669717400e-39
-0.141048 0.303933 1.109000 1.749558968e-39
-0.138757 0.302837 1.105000 1.565167708e-39
-0.136975 0.302837 1.105000 1.749558968e-39
-0.134704 0.301740 1.101000 1.565167708e-39
-0.132928 0.301740 1.101000 1.381849843e-39
-0.130199 0.299548 1.093000 1.381849843e-39
-0.127732 0.297904 1.087000 1.289654213e-39
-0.125978 0.297904 1.087000 1.289654213e-39
-0.123083 0.295163 1.077000 1.289654213e-39
-0.121346 0.295163 1.077000 1.289654213e-39
-0.118831 0.293245 1.070000 1.289654213e-39
-0.116120 0.290778 1.061000 1.474045473e-39
-0.114409 0.290778 1.061000 2.394928377e-39
-0.111530 0.287763 1.050000 2.763710896e-39
-0.109836 0.287763 1.050000 3.223610046e-39
-0.107422 0.285845 1.043000 2.947023156e-39
-0.104827 0.283378 1.034000 2.762631896e-39
-0.103160 0.283378 1.034000 2.670436267e-39
-0.100805 0.281460 1.027000 2.578240637e-39
-0.099149 0.281460 1.027000 2.762631896e-39
-0.097018 0.280090 1.022000 2.578240637e-39
-0.094903 0.278719 1.017000 2.301653747e-39
-0.093262 0.278719 1.017000 2.210537117e-39
-0.091262 0.277623 1.013000 2.118341487e-39
-0.089628 0.277623 1.013000 2.210537117e-39
-0.087734 0.276801 1.010000 2.394928377e-39
-0.085934 0.276253 1.008000 2.487124007e-39
-0.084309 0.276253 1.008000 2.118341487e-39
-0.082601 0.275979 1.007000 2.303451613e-39
-0.080977 0.275979 1.007000 2.026864723e-39
-0.079038 0.274883 1.003000 1.750277834e-39
-0.077343 0.274608 1.002000 1.842473464e-39
-0.075727 0.274608 1.002000 1.842473464e-39
-0.073963 0.274060 1.000000 1.750277834e-39
-0.072205 0.273512 0.998000 1.658082204e-39
-0.070596 0.273512 0.998000 1.750277834e-39
-0.068986 0.273512 0.998000 1.842473464e-39
-0.067376 0.273512 0.998000 2.026864723e-39
-0.065701 0.273238 0.997000 2.303451613e-39
-0.063964 0.272690 0.995000 1.934669094e-39
-0.062360 0.272690 0.995000 1.750632362e-39
-0.060755 0.272690 0.995000 1.750632362e-39
-0.059150 0.272690 0.995000 1.842827992e-39
-0.057546 0.272690 0.995000 1.935023622e-39
-0.055941 0.272690 0.995000 2.119414882e-39
-0.054336 0.272690 0.995000 2.027219252e-39
-0.052731 0.272690 0.995000 1.658436733e-39
-0.051127 0.272690 0.995000 1.658436733e-39
-0.049522 0.272690 0.995000 1.750632362e-39
-0.047917 0.272690 0.995000 2.027219252e-39
-0.046312 0.272690 0.995000 1.935023622e-39
-0.044708 0.272690 0.995000 1.750632362e-39
-0.043103 0.272690 0.995000 1.658436733e-39
-0.041498 0.272690 0.995000 1.474045473e-39
-0.039893 0.272690 0.995000 1.381849843e-39
-0.038289 0.272690 0.995000 1.658436733e-39
-0.036684 0.272690 0.995000 1.935023622e-39
-0.035079 0.272690 0.995000 1.842827992e-39
-0.033474 0.272690 0.995000 1.474045473e-39
-0.031870 0.272690 0.995000 1.381849843e-39
-0.030235 0.272416 0.994000 1.474045473e-39
-0.028631 0.272416 0.994000 1.474045473e-39
-0.027028 0.272416 0.994000 1.658436733e-39
-0.025425 0.272416 0.994000 1.658436733e-39
-0.023822 0.272416 0.994000 1.842827992e-39
-0.022219 0.272416 0.994000 1.935023622e-39
-0.020616 0.272416 0.994000 1.750632362e-39
-0.019032 0.272690 0.995000 1.750632362e-39
-0.017427 0.272690 0.995000 1.842827992e-39
-0.015822 0.272690 0.995000 1.842827992e-39
-0.014218 0.272690 0.995000 2.119414882e-39
-0.012613 0.272690 0.995000 1.842827992e-39
-0.011008 0.272690 0.995000 2.026500386e-39
-0.009403 0.272690 0.995000 2.118696016e-39
-0.007799 0.272690 0.995000 2.395282905e-39
-0.006206 0.273238 0.997000 1.934304756e-39
-0.004598 0.273238 0.997000 1.841754598e-39
-0.002990 0.273238 0.997000 1.933950227e-39
-0.001382 0.273238 0.997000 1.842109126e-39
0.000225 0.273238 0.997000 1.842109126e-39
0.001833 0.273238 0.997000 1.474045473e-39
0.003441 0.273238 0.997000 1.658436733e-39
0.005049 0.273238 0.997000 1.658436733e-39
0.006657 0.273238 0.997000 1.750632362e-39
0.008265 0.273238 0.997000 1.381849843e-39
0.009873 0.273238 0.997000 1.474045473e-39
0.011481 0.273238 0.997000 1.658436733e-39
0.013089 0.273238 0.997000 1.474045473e-39
0.014697 0.273238 0.997000 2.027219252e-39
0.016321 0.273512 0.998000 2.027219252e-39
0.017931 0.273512 0.998000 1.935020820e-39
0.019580 0.274060 1.000000 1.842825190e-39
0.021193 0.274060 1.000000 1.658433930e-39
0.022805 0.274060 1.000000 1.658433930e-39
0.024467 0.274608 1.002000 1.658436733e-39
0.026083 0.274608 1.002000 1.658436733e-39
0.027699 0.274608 1.002000 1.935023622e-39
0.029315 0.274608 1.002000 1.842827992e-39
0.030931 0.274608 1.002000 1.750632362e-39
0.032580 0.274883 1.003000 1.381849843e-39
0.034197 0.274883 1.003000 1.381130977e-39
0.035815 0.274883 1.003000 1.473326607e-39
0.037433 0.274883 1.003000 1.474045473e-39
0.039050 0.274883 1.003000 1.658436733e-39
0.040668 0.274883 1.003000 1.658436733e-39
0.042285 0.274883 1.003000 1.658436733e-39
0.043903 0.274883 1.003000 1.658436733e-39
0.045521 0.274883 1.003000 1.474045473e-39
0.047138 0.274883 1.003000 1.474045473e-39
0.048756 0.274883 1.003000 1.474045473e-39
0.050374 0.274883 1.003000 1.474045473e-39
0.051991 0.274883 1.003000 1.474045473e-39
0.053609 0.274883 1.003000 1.474045473e-39
0.055227 0.274883 1.003000 1.750632362e-39
0.056844 0.274883 1.003000 2.119414882e-39
0.058462 0.274883 1.003000 1.842827992e-39
0.060199 0.275431 1.005000 1.474045473e-39
0.061820 0.275431 1.005000 1.289654213e-39
0.063441 0.275431 1.005000 1.658436733e-39
0.065062 0.275431 1.005000 1.750632362e-39
0.066683 0.275431 1.005000 2.027219252e-39
0.068304 0.275431 1.005000 2.027219252e-39
0.070064 0.275979 1.007000 1.935023622e-39
0.071688 0.275979 1.007000 1.842827992e-39
0.073312 0.275979 1.007000 1.750277834e-39
0.074936 0.275979 1.007000 1.842473464e-39
0.076560 0.275979 1.007000 2.303806142e-39
0.078184 0.275979 1.007000 2.303806142e-39
0.079808 0.275979 1.007000 2.395282905e-39
0.081432 0.275979 1.007000 2.026500386e-39
0.083056 0.275979 1.007000 1.934304756e-39
0.084680 0.275979 1.007000 1.842109126e-39
0.086390 0.276253 1.008000 1.749913496e-39
0.088191 0.276801 1.010000 1.565522237e-39
0.089820 0.276801 1.010000 1.749913496e-39
0.091448 0.276801 1.010000 1.749913496e-39
0.093077 0.276801 1.010000 1.842109126e-39
0.094706 0.276801 1.010000 1.842109126e-39
0.096335 0.276801 1.010000 1.842827992e-39
0.097964 0.276801 1.010000 1.750632362e-39
0.099593 0.276801 1.010000 1.381849843e-39
0.101222 0.276801 1.010000 1.381849843e-39
0.102851 0.276801 1.010000 1.474045473e-39
0.104480 0.276801 1.010000 1.474045473e-39
0.106109 0.276801 1.010000 1.474045473e-39
0.107738 0.276801 1.010000 1.658436733e-39
0.109367 0.276801 1.010000 1.750632362e-39
0.110996 0.276801 1.010000 1.842827992e-39
0.112848 0.277349 1.012000 1.842827992e-39
0.114480 0.277349 1.012000 1.750632362e-39
0.116112 0.277349 1.012000 1.381849843e-39
0.117744 0.277349 1.012000 1.381849843e-39
0.119376 0.277349 1.012000 1.381849843e-39
0.121008 0.277349 1.012000 1.381849843e-39
0.122641 0.277349 1.012000 1.289654213e-39
0.124273 0.277349 1.012000 1.289654213e-39
